# x y Mean_Curvature nx ny
-3.00699 8.26848 8.69236 0.154347 0.612122 0.775554
-2.98182 7.75057 9.0088 0.150701 0.428507 0.890882
-2.96711 7.26466 9.19383 0.146514 0.284322 0.947467
-2.9585 6.79613 9.3021 0.143232 0.17206 0.974618
-2.95381 6.33762 9.36097 0.141076 0.0840364 0.986426
-2.95209 5.88547 9.38271 0.140185 0.0148196 0.990014
-2.95256 5.43701 9.37678 0.140464 -0.0396381 0.989292
-2.95478 4.99054 9.3489 0.141869 -0.0820814 0.986476
-2.95828 4.54463 9.30482 0.144268 -0.11432 0.982913
-2.96284 4.09842 9.24747 0.147663 -0.137556 0.979425
-2.96807 3.65103 9.18169 0.151891 -0.1524 0.976577
-2.97374 3.20195 9.11045 0.156877 -0.159196 0.974703
-2.97953 2.75076 9.03769 0.162428 -0.157995 0.973989
-2.98512 2.29724 8.96735 0.168271 -0.148762 0.974451
-2.99029 1.84138 8.90242 0.174118 -0.131622 0.975889
-2.9947 1.38332 8.84686 0.179502 -0.106923 0.97793
-2.99806 0.923364 8.80462 0.183857 -0.075549 0.980045
-3.0002 0.462046 8.7777 0.186753 -0.0391482 0.981627
-3.00089 2.31035e-15 8.76905 0.187714 -1.98015e-16 0.982224
-3.0002 -0.462046 8.7777 0.186753 0.0391482 0.981627
-2.99806 -0.923364 8.80462 0.183857 0.075549 0.980045
-2.9947 -1.38332 8.84686 0.179502 0.106923 0.97793
-2.99029 -1.84138 8.90242 0.174118 0.131622 0.975889
-2.98512 -2.29724 8.96735 0.168271 0.148762 0.974451
-2.97953 -2.75076 9.03769 0.162428 0.157995 0.973989
-2.97374 -3.20195 9.11045 0.156877 0.159196 0.974703
-2.96807 -3.65103 9.18169 0.151891 0.1524 0.976577
-2.96284 -4.09842 9.24747 0.147663 0.137556 0.979425
-2.95828 -4.54463 9.30482 0.144268 0.11432 0.982913
-2.95478 -4.99054 9.3489 0.141869 0.0820814 0.986476
-2.95256 -5.43701 9.37678 0.140464 0.0396381 0.989292
-2.95209 -5.88547 9.38271 0.140185 -0.0148196 0.990014
-2.95381 -6.33762 9.36097 0.141076 -0.0840364 0.986426
-2.9585 -6.79613 9.3021 0.143232 -0.17206 0.974618
-2.96711 -7.26466 9.19383 0.146514 -0.284322 0.947467
-2.98182 -7.75057 9.0088 0.150701 -0.428507 0.890882
-3.00699 -8.26848 8.69236 0.154347 -0.612122 0.775554
-3.06027 -8.87423 8.02254 0.153011 -0.840801 0.51927
-3.28648 8.85098 8.12334 0.152909 0.82255 0.54775
-3.23319 8.25684 8.74561 0.154027 0.599006 0.785791
-3.20699 7.74172 9.05158 0.150451 0.419169 0.895356
-3.19171 7.25762 9.22997 0.146506 0.278353 0.94924
-3.1826 6.78987 9.33639 0.143297 0.168229 0.975277
-3.17771 6.33208 9.39343 0.141246 0.0819082 0.98658
-3.17593 5.88046 9.41429 0.140408 0.0139397 0.989996
-3.17643 5.43237 9.40845 0.140673 -0.0395662 0.989265
-3.17881 4.98628 9.38066 0.142056 -0.0812556 0.986518
-3.18249 4.54062 9.33766 0.144358 -0.112866 0.983068
-3.18731 4.09469 9.28137 0.147637 -0.135589 0.979703
-3.19285 3.64761 9.21666 0.151729 -0.150036 0.976968
-3.19886 3.19886 9.14648 0.156556 -0.156556 0.975182
-3.205 2.74804 9.07477 0.161923 -0.155214 0.97452
-3.21094 2.2949 9.00549 0.167563 -0.145994 0.974991
-3.21632 1.83942 8.94257 0.17311 -0.128981 0.97642
-3.22099 1.38181 8.88805 0.178266 -0.104675 0.978399
-3.22452 0.92233 8.84683 0.18241 -0.0738936 0.980442
-3.22674 0.461517 8.8209 0.185129 -0.0382605 0.981969
-3.22757 2.30777e-15 8.81129 0.18615 -1.93605e-16 0.982521
-3.22674 -0.461517 8.8209 0.185129 0.0382605 0.981969
-3.22452 -0.92233 8.84683 0.18241 0.0738936 0.980442
-3.22099 -1.38181 8.88805 0.178266 0.104675 0.978399
-3.21632 -1.83942 8.94257 0.17311 0.128981 0.97642
-3.21094 -2.2949 9.00549 0.167563 0.145994 0.974991
-3.205 -2.74804 9.07477 0.161923 0.155214 0.97452
-3.19886 -3.19886 9.14648 0.156556 0.156556 0.975182
-3.19285 -3.64761 9.21666 0.151729 0.150036 0.976968
-3.18731 -4.09469 9.28137 0.147637 0.135589 0.979703
-3.18249 -4.54062 9.33766 0.144358 0.112866 0.983068
-3.17881 -4.98628 9.38066 0.142056 0.0812556 0.986518
-3.17643 -5.43237 9.40845 0.140673 0.0395662 0.989265
-3.17593 -5.88046 9.41429 0.140408 -0.0139397 0.989996
-3.17771 -6.33208 9.39343 0.141246 -0.0819082 0.98658
-3.1826 -6.78987 9.33639 0.143297 -0.168229 0.975277
-3.19171 -7.25762 9.22997 0.146506 -0.278353 0.94924
-3.20699 -7.74172 9.05158 0.150451 -0.419169 0.895356
-3.23319 -8.25684 8.74561 0.154027 -0.599006 0.785791
-3.28648 -8.85098 8.12334 0.152909 -0.82255 0.54775
-3.5121 8.82964 8.21588 0.150689 0.805172 0.573577
-3.45868 8.24534 8.79821 0.151679 0.586316 0.795755
-3.43166 7.73321 9.09277 0.148343 0.410462 0.899731
-3.41573 7.25052 9.26643 0.144609 0.27254 0.951215
-3.40622 6.78372 9.37005 0.141583 0.164602 0.976146
-3.40116 6.32665 9.42525 0.139668 0.0798933 0.98697
-3.39924 5.8754 9.44619 0.138835 0.0130792 0.990229
-3.39985 5.42783 9.43949 0.139143 -0.0395021 0.989484
-3.4023 4.98196 9.41277 0.140424 -0.0804558 0.986817
-3.40624 4.53668 9.36986 0.142658 -0.111495 0.983472
-3.4113 4.09103 9.31464 0.145779 -0.133735 0.980237
-3.41714 3.64425 9.25099 0.149681 -0.147809 0.977624
-3.42348 3.19583 9.18189 0.154287 -0.154069 0.97594
-3.42987 2.74529 9.11221 0.159335 -0.152528 0.97537
-3.43613 2.29255 9.04398 0.164698 -0.143327 0.975875
-3.44181 1.83748 8.98211 0.169959 -0.126502 0.977298
-3.44672 1.38032 8.92861 0.17483 -0.102567 0.979242
-3.45041 0.921312 8.88841 0.178717 -0.0723432 0.981237
-3.45278 0.461008 8.86252 0.18132 -0.0374486 0.982711
-3.45357 2.30516e-15 8.85388 0.18221 -1.89384e-16 0.98326
-3.45278 -0.461008 8.86252 0.18132 0.0374486 0.982711
-3.45041 -0.921312 8.88841 0.178717 0.0723432 0.981237
-3.44672 -1.38032 8.92861 0.17483 0.102567 0.979242
-3.44181 -1.83748 8.98211 0.169959 0.126502 0.977298
-3.43613 -2.29255 9.04398 0.164698 0.143327 0.975875
-3.42987 -2.74529 9.11221 0.159335 0.152528 0.97537
-3.42348 -3.19583 9.18189 0.154287 0.154069 0.97594
-3.41714 -3.64425 9.25099 0.149681 0.147809 0.977624
-3.4113 -4.09103 9.31464 0.145779 0.133735 0.980237
-3.40624 -4.53668 9.36986 0.142658 0.111495 0.983472
-3.4023 -4.98196 9.41277 0.140424 0.0804558 0.986817
-3.39985 -5.42783 9.43949 0.139143 0.0395021 0.989484
-3.39924 -5.8754 9.44619 0.138835 -0.0130792 0.990229
-3.40116 -6.32665 9.42525 0.139668 -0.0798933 0.98697
-3.40622 -6.78372 9.37005 0.141583 -0.164602 0.976146
-3.41573 -7.25052 9.26643 0.144609 -0.27254 0.951215
-3.43166 -7.73321 9.09277 0.148343 -0.410462 0.899731
-3.45868 -8.24534 8.79821 0.151679 -0.586316 0.795755
-3.5121 -8.82964 8.21588 0.150689 -0.805172 0.573577
-3.73736 8.81042 8.29922 0.146364 0.789122 0.596544
-3.68365 8.23439 8.84826 0.147351 0.574505 0.805129
-3.65585 7.72502 9.13236 0.144337 0.402358 0.904033
-3.63923 7.24355 9.30225 0.140843 0.267027 0.953341
-3.62937 6.77769 9.40306 0.138052 0.161167 0.977224
-3.62405 6.32117 9.45738 0.136245 0.0779274 0.987606
-3.62209 5.87044 9.47745 0.135487 0.0122623 0.990703
-3.62274 5.42323 9.47085 0.135772 -0.0394438 0.989955
-3.62544 4.97787 9.44326 0.137049 -0.079728 0.98735
-3.62953 4.53283 9.40142 0.139126 -0.110206 0.984123
-3.63492 4.08755 9.3463 0.142107 -0.132041 0.981005
-3.64104 3.64104 9.28373 0.145771 -0.145771 0.97852
-3.64761 3.19285 9.21666 0.150036 -0.151729 0.976968
-3.65432 2.74266 9.14804 0.154773 -0.150068 0.976486
-3.66089 2.29029 9.08087 0.159798 -0.140884 0.977045
-3.66684 1.83562 9.02004 0.164713 -0.124232 0.978487
-3.67188 1.37885 8.96855 0.169171 -0.10059 0.98044
-3.67581 0.920332 8.92839 0.172842 -0.070925 0.982393
-3.67824 0.460506 8.9035 0.175217 -0.0366882 0.983846
-3.67909 2.30265e-15 8.89487 0.176055 -1.85525e-16 0.98438
-3.67824 -0.460506 8.9035 0.175217 0.0366882 0.983846
-3.67581 -0.920332 8.92839 0.172842 0.070925 0.982393
-3.67188 -1.37885 8.96855 0.169171 0.10059 0.98044
-3.66684 -1.83562 9.02004 0.164713 0.124232 0.978487
-3.66089 -2.29029 9.08087 0.159798 0.140884 0.977045
-3.65432 -2.74266 9.14804 0.154773 0.150068 0.976486
-3.64761 -3.19285 9.21666 0.150036 0.151729 0.976968
-3.64104 -3.64104 9.28373 0.145771 0.145771 0.97852
-3.63492 -4.08755 9.3463 0.142107 0.132041 0.981005
-3.62953 -4.53283 9.40142 0.139126 0.110206 0.984123
-3.62544 -4.97787 9.44326 0.137049 0.079728 0.98735
-3.62274 -5.42323 9.47085 0.135772 0.0394438 0.989955
-3.62209 -5.87044 9.47745 0.135487 -0.0122623 0.990703
-3.62405 -6.32117 9.45738 0.136245 -0.0779274 0.987606
-3.62937 -6.77769 9.40306 0.138052 -0.161167 0.977224
-3.63923 -7.24355 9.30225 0.140843 -0.267027 0.953341
-3.65585 -7.72502 9.13236 0.144337 -0.402358 0.904033
-3.68365 -8.23439 8.84826 0.147351 -0.574505 0.805129
-3.73736 -8.81042 8.29922 0.146364 -0.789122 0.596544
-3.96232 8.7931 8.37432 0.1399 0.774431 0.616996
-3.90813 8.224 8.89575 0.141003 0.563551 0.813959
-3.8795 7.71697 9.17129 0.138345 0.394635 0.908363
-3.86233 7.23689 9.33645 0.135221 0.261942 0.955564
-3.85205 6.77177 9.43541 0.13266 0.157916 0.978501
-3.84659 6.31596 9.4879 0.131045 0.0761227 0.98845
-3.8446 5.86574 9.5071 0.130372 0.0115107 0.991398
-3.84527 5.41888 9.50059 0.130632 -0.0393953 0.990648
-3.84803 4.97373 9.47407 0.131773 -0.0790227 0.988125
-3.85247 4.52917 9.43137 0.133773 -0.109032 0.984996
-3.85798 4.08403 9.37829 0.136457 -0.130396 0.982027
-3.86447 3.6379 9.31583 0.13989 -0.143854 0.979662
-3.87133 3.19001 9.24982 0.143823 -0.149589 0.978232
-3.87835 2.74015 9.18227 0.148189 -0.147818 0.977849
-3.88523 2.28813 9.11615 0.152816 -0.13865 0.97848
-3.89144 1.83384 9.05637 0.157329 -0.122157 0.979962
-3.89668 1.37748 9.00591 0.161406 -0.0988277 0.981927
-3.90075 0.919392 8.96677 0.164744 -0.0696286 0.983876
-3.90323 0.460023 8.94288 0.166872 -0.035993 0.985321
-3.90413 2.30024e-15 8.93426 0.167649 -1.81997e-16 0.985847
-3.90323 -0.460023 8.94288 0.166872 0.035993 0.985321
-3.90075 -0.919392 8.96677 0.164744 0.0696286 0.983876
-3.89668 -1.37748 9.00591 0.161406 0.0988277 0.981927
-3.89144 -1.83384 9.05637 0.157329 0.122157 0.979962
-3.88523 -2.28813 9.11615 0.152816 0.13865 0.97848
-3.87835 -2.74015 9.18227 0.148189 0.147818 0.977849
-3.87133 -3.19001 9.24982 0.143823 0.149589 0.978232
-3.86447 -3.6379 9.31583 0.13989 0.143854 0.979662
-3.85798 -4.08403 9.37829 0.136457 0.130396 0.982027
-3.85247 -4.52917 9.43137 0.133773 0.109032 0.984996
-3.84803 -4.97373 9.47407 0.131773 0.0790227 0.988125
-3.84527 -5.41888 9.50059 0.130632 0.0393953 0.990648
-3.8446 -5.86574 9.5071 0.130372 -0.0115107 0.991398
-3.84659 -6.31596 9.4879 0.131045 -0.0761227 0.98845
-3.85205 -6.77177 9.43541 0.13266 -0.157916 0.978501
-3.86233 -7.23689 9.33645 0.135221 -0.261942 0.955564
-3.8795 -7.71697 9.17129 0.138345 -0.394635 0.908363
-3.90813 -8.224 8.89575 0.141003 -0.563551 0.813959
-3.96232 -8.7931 8.37432 0.1399 -0.774431 0.616996
-4.18692 8.77725 8.44305 0.131229 0.760853 0.635516
-4.13228 8.21438 8.93974 0.132619 0.553648 0.822123
-4.1028 7.70946 9.20766 0.130409 0.387649 0.912536
-4.08505 7.23054 9.36904 0.127687 0.257257 0.95787
-4.07447 6.76633 9.4652 0.125459 0.155025 0.979912
-4.06879 6.31103 9.5168 0.124011 0.0744689 0.989483
-4.06677 5.8613 9.53514 0.12343 0.01082 0.992294
-4.06748 5.41476 9.52872 0.123662 -0.0393564 0.991544
-4.07038 4.96994 9.5023 0.124704 -0.0784062 0.989091
-4.07496 4.52559 9.46067 0.126487 -0.107929 0.986079
-4.08079 4.08079 9.4077 0.128947 -0.128947 0.983232
-4.08755 3.63492 9.3463 0.132041 -0.142107 0.981005
-4.09469 3.18731 9.28137 0.135589 -0.147637 0.979703
-4.10201 2.73775 9.21488 0.139527 -0.145764 0.979431
-4.10916 2.28607 9.14982 0.143695 -0.136609 0.980148
-4.11563 1.83214 9.09108 0.14775 -0.120261 0.981686
-4.12106 1.37616 9.04166 0.151401 -0.0972171 0.98368
-4.12526 0.918491 9.00354 0.15437 -0.0684434 0.98564
-4.12788 0.459572 8.97967 0.156304 -0.0353745 0.987075
-4.12872 2.29792e-15 8.97204 0.156942 -1.78771e-16 0.987608
-4.12788 -0.459572 8.97967 0.156304 0.0353745 0.987075
-4.12526 -0.918491 9.00354 0.15437 0.0684434 0.98564
-4.12106 -1.37616 9.04166 0.151401 0.0972171 0.98368
-4.11563 -1.83214 9.09108 0.14775 0.120261 0.981686
-4.10916 -2.28607 9.14982 0.143695 0.136609 0.980148
-4.10201 -2.73775 9.21488 0.139527 0.145764 0.979431
-4.09469 -3.18731 9.28137 0.135589 0.147637 0.979703
-4.08755 -3.63492 9.3463 0.132041 0.142107 0.981005
-4.08079 -4.08079 9.4077 0.128947 0.128947 0.983232
-4.07496 -4.52559 9.46067 0.126487 0.107929 0.986079
-4.07038 -4.96994 9.5023 0.124704 0.0784062 0.989091
-4.06748 -5.41476 9.52872 0.123662 0.0393564 0.991544
-4.06677 -5.8613 9.53514 0.12343 -0.01082 0.992294
-4.06879 -6.31103 9.5168 0.124011 -0.0744689 0.989483
-4.07447 -6.76633 9.4652 0.125459 -0.155025 0.979912
-4.08505 -7.23054 9.36904 0.127687 -0.257257 0.95787
-4.1028 -7.70946 9.20766 0.130409 -0.387649 0.912536
-4.13228 -8.21438 8.93974 0.132619 -0.553648 0.822123
-4.18692 -8.77725 8.44305 0.131229 -0.760853 0.635516
-4.41159 8.76351 8.50259 0.120341 0.749084 0.651453
-4.35614 8.20553 8.98021 0.122131 0.544757 0.829653
-4.32592 7.70266 9.24051 0.1205 0.381543 0.916463
-4.30751 7.22469 9.39906 0.118223 0.253085 0.960193
-4.29656 6.76119 9.49337 0.116329 0.152379 0.981452
-4.29067 6.30637 9.54408 0.115078 0.072956 0.990674
-4.28853 5.85696 9.56251 0.114554 0.0101631 0.993365
-4.28938 5.41088 9.55523 0.114797 -0.0393261 0.99261
-4.29243 4.96636 9.52891 0.11572 -0.0778504 0.990226
-4.29725 4.52232 9.48739 0.117305 -0.106966 0.987319
-4.30328 4.07774 9.43548 0.11945 -0.127631 0.984602
-4.31028 3.6321 9.37516 0.122158 -0.140516 0.982513
-4.31781 3.18483 9.31032 0.125316 -0.14592 0.981327
-4.32541 2.73555 9.2449 0.128769 -0.143953 0.981171
-4.33273 2.28411 9.18187 0.132368 -0.134744 0.981999
-4.33954 1.83057 9.12321 0.135967 -0.118583 0.983591
-4.34515 1.37495 9.07482 0.139147 -0.0957897 0.985628
-4.34958 0.917678 9.03674 0.141777 -0.0674239 0.9876
-4.35223 0.459154 9.01388 0.143428 -0.0348257 0.989048
-4.35323 2.29589e-15 9.00528 0.144053 -1.76075e-16 0.98957
-4.35223 -0.459154 9.01388 0.143428 0.0348257 0.989048
-4.34958 -0.917678 9.03674 0.141777 0.0674239 0.9876
-4.34515 -1.37495 9.07482 0.139147 0.0957897 0.985628
-4.33954 -1.83057 9.12321 0.135967 0.118583 0.983591
-4.33273 -2.28411 9.18187 0.132368 0.134744 0.981999
-4.32541 -2.73555 9.2449 0.128769 0.143953 0.981171
-4.31781 -3.18483 9.31032 0.125316 0.14592 0.981327
-4.31028 -3.6321 9.37516 0.122158 0.140516 0.982513
-4.30328 -4.07774 9.43548 0.11945 0.127631 0.984602
-4.29725 -4.52232 9.48739 0.117305 0.106966 0.987319
-4.29243 -4.96636 9.52891 0.11572 0.0778504 0.990226
-4.28938 -5.41088 9.55523 0.114797 0.0393261 0.99261
-4.28853 -5.85696 9.56251 0.114554 -0.0101631 0.993365
-4.29067 -6.30637 9.54408 0.115078 -0.072956 0.990674
-4.29656 -6.76119 9.49337 0.116329 -0.152379 0.981452
-4.30751 -7.22469 9.39906 0.118223 -0.253085 0.960193
-4.32592 -7.70266 9.24051 0.1205 -0.381543 0.916463
-4.35614 -8.20553 8.98021 0.122131 -0.544757 0.829653
-4.41159 -8.76351 8.50259 0.120341 -0.749084 0.651453
-4.63615 8.75125 8.55578 0.107108 0.73858 0.665603
-4.57989 8.19766 9.01622 0.109479 0.537048 0.836417
-4.54867 7.69621 9.27174 0.108455 0.375894 0.920294
-4.52976 7.21935 9.42651 0.106743 0.249392 0.962502
-4.51847 6.75651 9.51895 0.105234 0.150052 0.983062
-4.51238 6.30216 9.56878 0.104211 0.0716279 0.991973
-4.51023 5.85318 9.58633 0.103798 0.00960572 0.994552
-4.51111 5.40737 9.57914 0.103998 -0.039306 0.9938
-4.5142 4.96301 9.55389 0.104745 -0.0773502 0.991487
-4.51926 4.51926 9.51247 0.106096 -0.106096 0.98868
-4.52559 4.07496 9.46067 0.107929 -0.126487 0.986079
-4.53283 3.62953 9.40142 0.110206 -0.139126 0.984123
-4.54062 3.18249 9.33766 0.112866 -0.144358 0.983068
-4.5486 2.73353 9.27233 0.115819 -0.142365 0.983015
-4.55629 2.28242 9.20938 0.118897 -0.133221 0.983929
-4.56321 1.82912 9.15274 0.121879 -0.117104 0.985613
-4.56911 1.37386 9.10441 0.124593 -0.0945735 0.98769
-4.57364 0.916928 9.06735 0.126786 -0.066524 0.989697
-4.57643 0.458778 9.04452 0.128194 -0.0343568 0.991154
-4.57736 2.29395e-15 9.0369 0.128674 -1.73612e-16 0.991687
-4.57643 -0.458778 9.04452 0.128194 0.0343568 0.991154
-4.57364 -0.916928 9.06735 0.126786 0.066524 0.989697
-4.56911 -1.37386 9.10441 0.124593 0.0945735 0.98769
-4.56321 -1.82912 9.15274 0.121879 0.117104 0.985613
-4.55629 -2.28242 9.20938 0.118897 0.133221 0.983929
-4.5486 -2.73353 9.27233 0.115819 0.142365 0.983015
-4.54062 -3.18249 9.33766 0.112866 0.144358 0.983068
-4.53283 -3.62953 9.40142 0.110206 0.139126 0.984123
-4.52559 -4.07496 9.46067 0.107929 0.126487 0.986079
-4.51926 -4.51926 9.51247 0.106096 0.106096 0.98868
-4.5142 -4.96301 9.55389 0.104745 0.0773502 0.991487
-4.51111 -5.40737 9.57914 0.103998 0.039306 0.9938
-4.51023 -5.85318 9.58633 0.103798 -0.00960572 0.994552
-4.51238 -6.30216 9.56878 0.104211 -0.0716279 0.991973
-4.51847 -6.75651 9.51895 0.105234 -0.150052 0.983062
-4.52976 -7.21935 9.42651 0.106743 -0.249392 0.962502
-4.54867 -7.69621 9.27174 0.108455 -0.375894 0.920294
-4.57989 -8.19766 9.01622 0.109479 -0.537048 0.836417
-4.63615 -8.75125 8.55578 0.107108 -0.73858 0.665603
-4.86106 8.7411 8.59977 0.0914516 0.729983 0.677319
-4.80361 8.19076 9.04776 0.0945474 0.530463 0.842419
-4.77145 7.69068 9.29849 0.0942757 0.37121 0.923751
-4.75196 7.21469 9.45042 0.0931764 0.246277 0.96471
-4.74022 6.75231 9.54195 0.0920753 0.148021 0.984689
-4.73394 6.29838 9.59089 0.0913104 0.0704721 0.993326
-4.73168 5.84966 9.60852 0.0909812 0.00909746 0.995811
-4.73259 5.40411 9.60143 0.0911364 -0.0392917 0.995063
-4.73594 4.96013 9.57531 0.0917582 -0.0769441 0.992804
-4.74112 4.51651 9.53496 0.0928082 -0.105347 0.990095
-4.74775 4.07248 9.48327 0.0942788 -0.1255 0.987604
-4.75533 3.62731 9.42412 0.0961102 -0.137977 0.985761
-4.7635 3.18054 9.36046 0.0982529 -0.143118 0.984816
-4.77162 2.73171 9.29717 0.100565 -0.140981 0.984891
-4.77956 2.28084 9.23527 0.103008 -0.131833 0.985905
-4.78681 1.82785 9.17871 0.10541 -0.115858 0.987657
-4.793 1.3729 9.13044 0.107595 -0.0935498 0.989784
-4.79762 0.916266 9.0944 0.10932 -0.0657626 0.991829
-4.80055 0.458447 9.07159 0.110453 -0.0339603 0.993301
-4.80152 2.29229e-15 9.06399 0.110839 -1.71603e-16 0.993838
-4.80055 -0.458447 9.07159 0.110453 0.0339603 0.993301
-4.79762 -0.916266 9.0944 0.10932 0.0657626 0.991829
-4.793 -1.3729 9.13044 0.107595 0.0935498 0.989784
-4.78681 -1.82785 9.17871 0.10541 0.115858 0.987657
-4.77956 -2.28084 9.23527 0.103008 0.131833 0.985905
-4.77162 -2.73171 9.29717 0.100565 0.140981 0.984891
-4.7635 -3.18054 9.36046 0.0982529 0.143118 0.984816
-4.75533 -3.62731 9.42412 0.0961102 0.137977 0.985761
-4.74775 -4.07248 9.48327 0.0942788 0.1255 0.987604
-4.74112 -4.51651 9.53496 0.0928082 0.105347 0.990095
-4.73594 -4.96013 9.57531 0.0917582 0.0769441 0.992804
-4.73259 -5.40411 9.60143 0.0911364 0.0392917 0.995063
-4.73168 -5.84966 9.60852 0.0909812 -0.00909746 0.995811
-4.73394 -6.29838 9.59089 0.0913104 -0.0704721 0.993326
-4.74022 -6.75231 9.54195 0.0920753 -0.148021 0.984689
-4.75196 -7.21469 9.45042 0.0931764 -0.246277 0.96471
-4.77145 -7.69068 9.29849 0.0942757 -0.37121 0.923751
-4.80361 -8.19076 9.04776 0.0945474 -0.530463 0.842419
-4.86106 -8.7411 8.59977 0.0914516 -0.729983 0.677319
-5.08624 8.73263 8.63648 0.0732043 0.72287 0.687095
-5.02736 8.18484 9.07483 0.0772013 0.524935 0.847634
-4.99432 7.68607 9.32077 0.0778155 0.367431 0.92679
-4.97404 7.21054 9.47174 0.0773731 0.243568 0.966793
-4.962 6.74875 9.56141 0.0767635 0.146355 0.986249
-4.95541 6.29505 9.61041 0.0762645 0.0694766 0.994664
-4.95316 5.84671 9.62716 0.0760596 0.00867908 0.997066
-4.9541 5.40137 9.62016 0.076165 -0.0392863 0.996321
-4.9576 4.9576 9.59414 0.0766023 -0.0766023 0.994115
-4.96301 4.5142 9.55389 0.0773502 -0.104745 0.991487
-4.96994 4.07038 9.5023 0.0784062 -0.124704 0.989091
-4.97787 3.62544 9.44326 0.079728 -0.137049 0.98735
-4.98628 3.17881 9.38066 0.0812556 -0.142056 0.986518
-4.99477 2.73022 9.31747 0.0829329 -0.139902 0.986686
-5.00307 2.27959 9.25566 0.0847079 -0.130799 0.987784
-5.01053 1.8268 9.20014 0.0864273 -0.114877 0.989613
-5.01687 1.37208 9.15291 0.087988 -0.0926998 0.991799
-5.02171 0.915714 9.11691 0.0892424 -0.0651572 0.993876
-5.02477 0.45817 9.09413 0.0900656 -0.0336451 0.995367
-5.02579 2.29091e-15 9.08654 0.0903466 -1.70006e-16 0.99591
-5.02477 -0.45817 9.09413 0.0900656 0.0336451 0.995367
-5.02171 -0.915714 9.11691 0.0892424 0.0651572 0.993876
-5.01687 -1.37208 9.15291 0.087988 0.0926998 0.991799
-5.01053 -1.8268 9.20014 0.0864273 0.114877 0.989613
-5.00307 -2.27959 9.25566 0.0847079 0.130799 0.987784
-4.99477 -2.73022 9.31747 0.0829329 0.139902 0.986686
-4.98628 -3.17881 9.38066 0.0812556 0.142056 0.986518
-4.97787 -3.62544 9.44326 0.079728 0.137049 0.98735
-4.96994 -4.07038 9.5023 0.0784062 0.124704 0.989091
-4.96301 -4.5142 9.55389 0.0773502 0.104745 0.991487
-4.9576 -4.9576 9.59414 0.0766023 0.0766023 0.994115
-4.9541 -5.40137 9.62016 0.076165 0.0392863 0.996321
-4.95316 -5.84671 9.62716 0.0760596 -0.00867908 0.997066
-4.95541 -6.29505 9.61041 0.0762645 -0.0694766 0.994664
-4.962 -6.74875 9.56141 0.0767635 -0.146355 0.986249
-4.97404 -7.21054 9.47174 0.0773731 -0.243568 0.966793
-4.99432 -7.68607 9.32077 0.0778155 -0.367431 0.92679
-5.02736 -8.18484 9.07483 0.0772013 -0.524935 0.847634
-5.08624 -8.73263 8.63648 0.0732043 -0.72287 0.687095
-5.3122 8.7265 8.66307 0.0521881 0.717833 0.694257
-5.25162 8.18052 9.0946 0.0573016 0.521044 0.851604
-5.21737 7.68239 9.33857 0.058907 0.364495 0.92934
-5.19644 7.20745 9.48763 0.0592459 0.241626 0.968559
-5.18385 6.74585 9.57733 0.0591517 0.145027 0.987658
-5.17709 6.29249 9.62543 0.0589782 0.0687332 0.99589
-5.17473 5.84431 9.64225 0.0588858 0.00834603 0.99823
-5.17584 5.39928 9.63437 0.0589499 -0.0392897 0.997487
-5.17948 4.95568 9.60845 0.0591785 -0.0763608 0.995323
-5.18511 4.51244 9.5683 0.0595831 -0.104313 0.992758
-5.19221 4.06868 9.51777 0.0601549 -0.124082 0.990447
-5.20035 3.62382 9.4598 0.0608845 -0.136266 0.9888
-5.20912 3.17738 9.3973 0.0617515 -0.141209 0.988052
-5.21812 2.72906 9.33324 0.0627242 -0.139102 0.98829
-5.22664 2.27856 9.27248 0.0637293 -0.129972 0.989467
-5.23443 1.82598 9.21704 0.06472 -0.114135 0.991355
-5.24105 1.37145 9.16987 0.0656212 -0.0920906 0.993586
-5.2461 0.915298 9.13392 0.0663467 -0.0647232 0.995695
-5.24916 0.45795 9.11214 0.066807 -0.0334029 0.997207
-5.25022 2.28981e-15 9.10455 0.0669698 -1.68778e-16 0.997755
-5.24916 -0.45795 9.11214 0.066807 0.0334029 0.997207
-5.2461 -0.915298 9.13392 0.0663467 0.0647232 0.995695
-5.24105 -1.37145 9.16987 0.0656212 0.0920906 0.993586
-5.23443 -1.82598 9.21704 0.06472 0.114135 0.991355
-5.22664 -2.27856 9.27248 0.0637293 0.129972 0.989467
-5.21812 -2.72906 9.33324 0.0627242 0.139102 0.98829
-5.20912 -3.17738 9.3973 0.0617515 0.141209 0.988052
-5.20035 -3.62382 9.4598 0.0608845 0.136266 0.9888
-5.19221 -4.06868 9.51777 0.0601549 0.124082 0.990447
-5.18511 -4.51244 9.5683 0.0595831 0.104313 0.992758
-5.17948 -4.95568 9.60845 0.0591785 0.0763608 0.995323
-5.17584 -5.39928 9.63437 0.0589499 0.0392897 0.997487
-5.17473 -5.84431 9.64225 0.0588858 -0.00834603 0.99823
-5.17709 -6.29249 9.62543 0.0589782 -0.0687332 0.99589
-5.18385 -6.74585 9.57733 0.0591517 -0.145027 0.987658
-5.19644 -7.20745 9.48763 0.0592459 -0.241626 0.968559
-5.21737 -7.68239 9.33857 0.058907 -0.364495 0.92934
-5.25162 -8.18052 9.0946 0.0573016 -0.521044 0.851604
-5.3122 -8.7265 8.66307 0.0521881 -0.717833 0.694257
-5.53899 8.72248 8.6805 0.0281613 0.714579 0.698987
-5.47623 8.17737 9.10897 0.0346096 0.51826 0.854522
-5.44079 7.67983 9.35096 0.0373634 0.362515 0.931229
-5.41897 7.20504 9.49999 0.0385746 0.240139 0.969972
-5.40597 6.74376 9.58875 0.0390805 0.144099 0.988791
-5.39891 6.29053 9.6369 0.039259 0.0681755 0.996901
-5.39658 5.84264 9.65283 0.0393009 0.0081159 0.999194
-5.39758 5.39758 9.64599 0.0392927 -0.0392927 0.998455
-5.40137 4.9541 9.62016 0.0392863 -0.076165 0.996321
-5.40737 4.51111 9.57914 0.039306 -0.103998 0.9938
-5.41476 4.06748 9.52872 0.0393564 -0.123662 0.991544
-5.42323 3.62274 9.47085 0.0394438 -0.135772 0.989955
-5.43237 3.17643 9.40845 0.0395662 -0.140673 0.989265
-5.4416 2.72816 9.34544 0.0397155 -0.138494 0.989567
-5.45049 2.27781 9.28477 0.0398822 -0.129386 0.990792
-5.45859 1.82537 9.22941 0.0400535 -0.113607 0.992718
-5.46549 1.371 9.1823 0.0402135 -0.0916558 0.994978
-5.47075 0.914992 9.1464 0.0403446 -0.0644128 0.997107
-5.47408 0.457809 9.12368 0.0404313 -0.0332572 0.998629
-5.47519 2.2891e-15 9.1161 0.0404615 -1.6804e-16 0.999181
-5.47408 -0.457809 9.12368 0.0404313 0.0332572 0.998629
-5.47075 -0.914992 9.1464 0.0403446 0.0644128 0.997107
-5.46549 -1.371 9.1823 0.0402135 0.0916558 0.994978
-5.45859 -1.82537 9.22941 0.0400535 0.113607 0.992718
-5.45049 -2.27781 9.28477 0.0398822 0.129386 0.990792
-5.4416 -2.72816 9.34544 0.0397155 0.138494 0.989567
-5.43237 -3.17643 9.40845 0.0395662 0.140673 0.989265
-5.42323 -3.62274 9.47085 0.0394438 0.135772 0.989955
-5.41476 -4.06748 9.52872 0.0393564 0.123662 0.991544
-5.40737 -4.51111 9.57914 0.039306 0.103998 0.9938
-5.40137 -4.9541 9.62016 0.0392863 0.076165 0.996321
-5.39758 -5.39758 9.64599 0.0392927 0.0392927 0.998455
-5.39658 -5.84264 9.65283 0.0393009 -0.0081159 0.999194
-5.39891 -6.29053 9.6369 0.039259 -0.0681755 0.996901
-5.40597 -6.74376 9.58875 0.0390805 -0.144099 0.988791
-5.41897 -7.20504 9.49999 0.0385746 -0.240139 0.969972
-5.44079 -7.67983 9.35096 0.0373634 -0.362515 0.931229
-5.47623 -8.17737 9.10897 0.0346096 -0.51826 0.854522
-5.53899 -8.72248 8.6805 0.0281613 -0.714579 0.698987
-5.76703 8.721 8.68691 0.00082473 0.713409 0.700747
-5.70158 8.17582 9.11605 0.00887809 0.516914 0.855991
-5.66469 7.67839 9.35792 0.0129507 0.361416 0.932315
-5.64211 7.20387 9.50597 0.0151541 0.239456 0.970789
-5.62843 6.74249 9.59569 0.0163431 0.143544 0.989509
-5.62123 6.28951 9.64292 0.0169148 0.0678926 0.997549
-5.61879 5.84167 9.65891 0.0170967 0.0079851 0.999822
-5.61982 5.39668 9.65214 0.0170238 -0.0392986 0.999082
-5.62375 4.95327 9.62639 0.0167541 -0.0760694 0.996962
-5.62999 4.51034 9.58547 0.0163271 -0.103822 0.994462
-5.63766 4.06677 9.53515 0.0157917 -0.123422 0.992229
-5.64662 3.62219 9.47641 0.0151471 -0.135542 0.990656
-5.65612 3.17594 9.41411 0.0144322 -0.140418 0.989987
-5.66572 2.72774 9.35119 0.0136717 -0.138228 0.990306
-5.67496 2.27745 9.29061 0.0128968 -0.129126 0.991544
-5.68339 1.82508 9.23532 0.0121483 -0.113369 0.993479
-5.69057 1.37078 9.18827 0.0114765 -0.0914569 0.995743
-5.69603 0.914845 9.15241 0.0109412 -0.0642694 0.997873
-5.6995 0.457735 9.12972 0.010591 -0.033182 0.999393
-5.70065 2.28873e-15 9.12216 0.0104724 -1.67657e-16 0.999945
-5.6995 -0.457735 9.12972 0.010591 0.033182 0.999393
-5.69603 -0.914845 9.15241 0.0109412 0.0642694 0.997873
-5.69057 -1.37078 9.18827 0.0114765 0.0914569 0.995743
-5.68339 -1.82508 9.23532 0.0121483 0.113369 0.993479
-5.67496 -2.27745 9.29061 0.0128968 0.129126 0.991544
-5.66572 -2.72774 9.35119 0.0136717 0.138228 0.990306
-5.65612 -3.17594 9.41411 0.0144322 0.140418 0.989987
-5.64662 -3.62219 9.47641 0.0151471 0.135542 0.990656
-5.63766 -4.06677 9.53515 0.0157917 0.123422 0.992229
-5.62999 -4.51034 9.58547 0.0163271 0.103822 0.994462
-5.62375 -4.95327 9.62639 0.0167541 0.0760694 0.996962
-5.61982 -5.39668 9.65214 0.0170238 0.0392986 0.999082
-5.61879 -5.84167 9.65891 0.0170967 -0.0079851 0.999822
-5.62123 -6.28951 9.64292 0.0169148 -0.0678926 0.997549
-5.62843 -6.74249 9.59569 0.0163431 -0.143544 0.989509
-5.64211 -7.20387 9.50597 0.0151541 -0.239456 0.970789
-5.66469 -7.67839 9.35792 0.0129507 -0.361416 0.932315
-5.70158 -8.17582 9.11605 0.00887809 -0.516914 0.855991
-5.76703 -8.721 8.68691 0.00082473 -0.713409 0.700747
-5.99683 8.7225 8.68042 -0.0302076 0.714555 0.698926
-5.92808 8.17628 9.11397 -0.0202404 0.51731 0.855559
-5.88945 7.67846 9.35759 -0.014631 0.361471 0.932269
-5.86583 7.20377 9.50653 -0.0112864 0.23939 0.970858
-5.85161 6.74239 9.59624 -0.00932578 0.143506 0.989606
-5.84412 6.28941 9.64349 -0.00831317 0.0678689 0.99766
-5.84142 5.84142 9.66048 -0.00795088 0.00795088 0.999937
-5.84264 5.39658 9.65283 -0.0081159 -0.0393009 0.999194
-5.84671 4.95316 9.62716 -0.00867908 -0.0760596 0.997066
-5.85318 4.51023 9.58633 -0.00960572 -0.103798 0.994552
-5.8613 4.06677 9.53514 -0.01082 -0.12343 0.992294
-5.87044 3.62209 9.47745 -0.0122623 -0.135487 0.990703
-5.88046 3.17593 9.41429 -0.0139397 -0.140408 0.989996
-5.89042 2.72772 9.35146 -0.0157192 -0.138207 0.990279
-5.90017 2.27749 9.29 -0.0175776 -0.129154 0.991469
-5.90908 1.82515 9.23381 -0.0193884 -0.113438 0.993356
-5.91653 1.37083 9.18683 -0.0209937 -0.0915073 0.995583
-5.92221 0.914879 9.15101 -0.022277 -0.0643019 0.997682
-5.9258 0.457751 9.12835 -0.0231173 -0.0331977 0.999181
-5.927 2.28882e-15 9.1208 -0.0234028 -1.67735e-16 0.999726
-5.9258 -0.457751 9.12835 -0.0231173 0.0331977 0.999181
-5.92221 -0.914879 9.15101 -0.022277 0.0643019 0.997682
-5.91653 -1.37083 9.18683 -0.0209937 0.0915073 0.995583
-5.90908 -1.82515 9.23381 -0.0193884 0.113438 0.993356
-5.90017 -2.27749 9.29 -0.0175776 0.129154 0.991469
-5.89042 -2.72772 9.35146 -0.0157192 0.138207 0.990279
-5.88046 -3.17593 9.41429 -0.0139397 0.140408 0.989996
-5.87044 -3.62209 9.47745 -0.0122623 0.135487 0.990703
-5.8613 -4.06677 9.53514 -0.01082 0.12343 0.992294
-5.85318 -4.51023 9.58633 -0.00960572 0.103798 0.994552
-5.84671 -4.95316 9.62716 -0.00867908 0.0760596 0.997066
-5.84264 -5.39658 9.65283 -0.0081159 0.0393009 0.999194
-5.84142 -5.84142 9.66048 -0.00795088 -0.00795088 0.999937
-5.84412 -6.28941 9.64349 -0.00831317 -0.0678689 0.99766
-5.85161 -6.74239 9.59624 -0.00932578 -0.143506 0.989606
-5.86583 -7.20377 9.50653 -0.0112864 -0.23939 0.970858
-5.88945 -7.67846 9.35759 -0.014631 -0.361471 0.932269
-5.92808 -8.17628 9.11397 -0.0202404 -0.51731 0.855559
-5.99683 -8.7225 8.68042 -0.0302076 -0.714555 0.698926
-6.22875 8.72718 8.66013 -0.0653685 0.717938 0.693031
-6.15589 8.17874 9.10274 -0.0531282 0.519279 0.852952
-6.11519 7.68004 9.34997 -0.0457227 0.362576 0.930832
-6.09038 7.2049 9.50073 -0.0410567 0.240013 0.969901
-6.07561 6.74346 9.59041 -0.0382404 0.143949 0.988846
-6.06768 6.29024 9.63863 -0.036701 0.0680884 0.997004
-6.06487 5.84219 9.65566 -0.0361464 0.00805353 0.999314
-6.06612 5.39728 9.64806 -0.0364033 -0.0392907 0.998564
-6.0705 4.95392 9.62151 -0.0373286 -0.0761394 0.996398
-6.07705 4.5108 9.58172 -0.0387741 -0.103902 0.993831
-6.08561 4.06738 9.52966 -0.0407714 -0.123608 0.991493
-6.09525 3.62271 9.47111 -0.0431547 -0.135737 0.989805
-6.10564 3.17646 9.40803 -0.0458944 -0.140661 0.988993
-6.11628 2.72832 9.34337 -0.0489009 -0.138568 0.989145
-6.12638 2.27798 9.28198 -0.051958 -0.129484 0.990219
-6.13562 1.82554 9.22587 -0.0549413 -0.113719 0.991993
-6.1435 1.37116 9.17798 -0.0576421 -0.091771 0.99411
-6.14939 0.915095 9.14221 -0.0597626 -0.0644839 0.996128
-6.15328 0.457871 9.11861 -0.061207 -0.0333065 0.997569
-6.15452 2.28941e-15 9.11107 -0.0616798 -1.68283e-16 0.998096
-6.15328 -0.457871 9.11861 -0.061207 0.0333065 0.997569
-6.14939 -0.915095 9.14221 -0.0597626 0.0644839 0.996128
-6.1435 -1.37116 9.17798 -0.0576421 0.091771 0.99411
-6.13562 -1.82554 9.22587 -0.0549413 0.113719 0.991993
-6.12638 -2.27798 9.28198 -0.051958 0.129484 0.990219
-6.11628 -2.72832 9.34337 -0.0489009 0.138568 0.989145
-6.10564 -3.17646 9.40803 -0.0458944 0.140661 0.988993
-6.09525 -3.62271 9.47111 -0.0431547 0.135737 0.989805
-6.08561 -4.06738 9.52966 -0.0407714 0.123608 0.991493
-6.07705 -4.5108 9.58172 -0.0387741 0.103902 0.993831
-6.0705 -4.95392 9.62151 -0.0373286 0.0761394 0.996398
-6.06612 -5.39728 9.64806 -0.0364033 0.0392907 0.998564
-6.06487 -5.84219 9.65566 -0.0361464 -0.00805353 0.999314
-6.06768 -6.29024 9.63863 -0.036701 -0.0680884 0.997004
-6.07561 -6.74346 9.59041 -0.0382404 -0.143949 0.988846
-6.09038 -7.2049 9.50073 -0.0410567 -0.240013 0.969901
-6.11519 -7.68004 9.34997 -0.0457227 -0.362576 0.930832
-6.15589 -8.17874 9.10274 -0.0531282 -0.519279 0.852952
-6.22875 -8.72718 8.66013 -0.0653685 -0.717938 0.693031
-6.46383 8.73612 8.62138 -0.105297 0.724164 0.681542
-6.38548 8.1836 9.0805 -0.090279 0.523039 0.847514
-6.34236 7.68351 9.33319 -0.0807825 0.364964 0.92751
-6.31617 7.20763 9.48668 -0.074584 0.241512 0.967527
-6.30055 6.74568 9.57821 -0.0707295 0.144834 0.986925
-6.29232 6.29232 9.62643 -0.0686358 0.0686358 0.995278
-6.28941 5.84412 9.64349 -0.0678689 0.00831317 0.99766
-6.29053 5.39891 9.6369 -0.0681755 -0.039259 0.996901
-6.29505 4.95541 9.61041 -0.0694766 -0.0762645 0.994664
-6.30216 4.51238 9.56878 -0.0716279 -0.104211 0.991973
-6.31103 4.06879 9.5168 -0.0744689 -0.124011 0.989483
-6.32117 3.62405 9.45738 -0.0779274 -0.136245 0.987606
-6.33208 3.17771 9.39343 -0.0819082 -0.141246 0.98658
-6.3431 2.72938 9.32885 -0.0862184 -0.139136 0.986513
-6.35389 2.27898 9.26562 -0.0907414 -0.130118 0.987337
-6.36362 1.82639 9.20862 -0.0951027 -0.114318 0.988882
-6.37195 1.37182 9.15982 -0.099065 -0.0922891 0.990792
-6.37821 0.915562 9.12313 -0.102198 -0.0648741 0.992646
-6.38206 0.458092 9.10052 -0.104201 -0.0334905 0.993992
-6.38352 2.29058e-15 9.09202 -0.104963 -1.69291e-16 0.994476
-6.38206 -0.458092 9.10052 -0.104201 0.0334905 0.993992
-6.37821 -0.915562 9.12313 -0.102198 0.0648741 0.992646
-6.37195 -1.37182 9.15982 -0.099065 0.0922891 0.990792
-6.36362 -1.82639 9.20862 -0.0951027 0.114318 0.988882
-6.35389 -2.27898 9.26562 -0.0907414 0.130118 0.987337
-6.3431 -2.72938 9.32885 -0.0862184 0.139136 0.986513
-6.33208 -3.17771 9.39343 -0.0819082 0.141246 0.98658
-6.32117 -3.62405 9.45738 -0.0779274 0.136245 0.987606
-6.31103 -4.06879 9.5168 -0.0744689 0.124011 0.989483
-6.30216 -4.51238 9.56878 -0.0716279 0.104211 0.991973
-6.29505 -4.95541 9.61041 -0.0694766 0.0762645 0.994664
-6.29053 -5.39891 9.6369 -0.0681755 0.039259 0.996901
-6.28941 -5.84412 9.64349 -0.0678689 -0.00831317 0.99766
-6.29232 -6.29232 9.62643 -0.0686358 -0.0686358 0.995278
-6.30055 -6.74568 9.57821 -0.0707295 -0.144834 0.986925
-6.31617 -7.20763 9.48668 -0.074584 -0.241512 0.967527
-6.34236 -7.68351 9.33319 -0.0807825 -0.364964 0.92751
-6.38548 -8.1836 9.0805 -0.090279 -0.523039 0.847514
-6.46383 -8.73612 8.62138 -0.105297 -0.724164 0.681542
-6.70289 8.74995 8.56139 -0.150648 0.733145 0.663177
-6.61738 8.19128 9.04539 -0.132278 0.528719 0.838427
-6.57128 7.68906 9.30632 -0.120318 0.36865 0.921749
-6.54351 7.21215 9.46345 -0.112354 0.243927 0.963263
-6.52702 6.74959 9.55682 -0.107329 0.146375 0.98339
-6.51817 6.29565 9.60692 -0.104499 0.0694902 0.992094
-6.51498 5.84706 9.62495 -0.103433 0.00870814 0.994598
-6.51631 5.40176 9.61744 -0.103903 -0.0391955 0.993815
-6.52115 4.95815 9.59005 -0.105687 -0.0764929 0.991453
-6.52849 4.51486 9.54849 -0.108535 -0.104649 0.988569
-6.53783 4.07112 9.49563 -0.112379 -0.124634 0.985818
-6.54848 3.62621 9.43533 -0.117056 -0.137006 0.98363
-6.55994 3.17968 9.3705 -0.122441 -0.142095 0.982251
-6.57167 2.7312 9.30408 -0.128361 -0.140081 0.981784
-6.583 2.28055 9.23997 -0.134493 -0.131043 0.982211
-6.5934 1.82774 9.18111 -0.140514 -0.115218 0.983352
-6.60201 1.37283 9.13236 -0.145817 -0.0930021 0.98493
-6.60882 0.916281 9.0938 -0.150216 -0.0654283 0.986486
-6.61298 0.458463 9.07025 -0.153006 -0.0337901 0.987647
-6.61448 2.29243e-15 9.06176 -0.154027 -1.708e-16 0.988067
-6.61298 -0.458463 9.07025 -0.153006 0.0337901 0.987647
-6.60882 -0.916281 9.0938 -0.150216 0.0654283 0.986486
-6.60201 -1.37283 9.13236 -0.145817 0.0930021 0.98493
-6.5934 -1.82774 9.18111 -0.140514 0.115218 0.983352
-6.583 -2.28055 9.23997 -0.134493 0.131043 0.982211
-6.57167 -2.7312 9.30408 -0.128361 0.140081 0.981784
-6.55994 -3.17968 9.3705 -0.122441 0.142095 0.982251
-6.54848 -3.62621 9.43533 -0.117056 0.137006 0.98363
-6.53783 -4.07112 9.49563 -0.112379 0.124634 0.985818
-6.52849 -4.51486 9.54849 -0.108535 0.104649 0.988569
-6.52115 -4.95815 9.59005 -0.105687 0.0764929 0.991453
-6.51631 -5.40176 9.61744 -0.103903 0.0391955 0.993815
-6.51498 -5.84706 9.62495 -0.103433 -0.00870814 0.994598
-6.51817 -6.29565 9.60692 -0.104499 -0.0694902 0.992094
-6.52702 -6.74959 9.55682 -0.107329 -0.146375 0.98339
-6.54351 -7.21215 9.46345 -0.112354 -0.243927 0.963263
-6.57128 -7.68906 9.30632 -0.120318 -0.36865 0.921749
-6.61738 -8.19128 9.04539 -0.132278 -0.528719 0.838427
-6.70289 -8.74995 8.56139 -0.150648 -0.733145 0.663177
-6.948 8.77083 8.47086 -0.202466 0.745712 0.634761
-6.85248 8.20258 8.99369 -0.179933 0.536742 0.824337
-6.80245 7.69709 9.2675 -0.164961 0.373771 0.912734
-6.77274 7.21864 9.43014 -0.154909 0.247273 0.956483
-6.75518 6.75518 9.52626 -0.14851 0.14851 0.977696
-6.74568 6.30055 9.57821 -0.144834 0.0707295 0.986925
-6.74239 5.85161 9.59624 -0.143506 0.00932578 0.989606
-6.74376 5.40597 9.58875 -0.144099 -0.0390805 0.988791
-6.74875 4.962 9.56141 -0.146355 -0.0767635 0.986249
-6.75651 4.51847 9.51895 -0.150052 -0.105234 0.983062
-6.76633 4.07447 9.4652 -0.155025 -0.125459 0.979912
-6.77769 3.62937 9.40306 -0.161167 -0.138052 0.977224
-6.78987 3.1826 9.33639 -0.168229 -0.143297 0.975277
-6.80234 2.73384 9.26813 -0.175993 -0.141367 0.974188
-6.81421 2.28281 9.20313 -0.183931 -0.132276 0.973998
-6.82531 1.82963 9.14241 -0.191853 -0.116375 0.9745
-6.83473 1.37436 9.09084 -0.199004 -0.094042 0.975476
-6.84177 0.917297 9.05231 -0.204629 -0.0661468 0.976602
-6.84624 0.458983 9.02783 -0.20833 -0.0341725 0.977462
-6.84779 2.29503e-15 9.01934 -0.209634 -1.72725e-16 0.97778
-6.84624 -0.458983 9.02783 -0.20833 0.0341725 0.977462
-6.84177 -0.917297 9.05231 -0.204629 0.0661468 0.976602
-6.83473 -1.37436 9.09084 -0.199004 0.094042 0.975476
-6.82531 -1.82963 9.14241 -0.191853 0.116375 0.9745
-6.81421 -2.28281 9.20313 -0.183931 0.132276 0.973998
-6.80234 -2.73384 9.26813 -0.175993 0.141367 0.974188
-6.78987 -3.1826 9.33639 -0.168229 0.143297 0.975277
-6.77769 -3.62937 9.40306 -0.161167 0.138052 0.977224
-6.76633 -4.07447 9.4652 -0.155025 0.125459 0.979912
-6.75651 -4.51847 9.51895 -0.150052 0.105234 0.983062
-6.74875 -4.962 9.56141 -0.146355 0.0767635 0.986249
-6.74376 -5.40597 9.58875 -0.144099 0.0390805 0.988791
-6.74239 -5.85161 9.59624 -0.143506 -0.00932578 0.989606
-6.74568 -6.30055 9.57821 -0.144834 -0.0707295 0.986925
-6.75518 -6.75518 9.52626 -0.14851 -0.14851 0.977696
-6.77274 -7.21864 9.43014 -0.154909 -0.247273 0.956483
-6.80245 -7.69709 9.2675 -0.164961 -0.373771 0.912734
-6.85248 -8.20258 8.99369 -0.179933 -0.536742 0.824337
-6.948 -8.77083 8.47086 -0.202466 -0.745712 0.634761
-7.20216 8.80176 8.33677 -0.262006 0.762375 0.591723
-7.09142 8.21792 8.92357 -0.233948 0.546878 0.803861
-7.0368 7.70835 9.21301 -0.215623 0.380728 0.899196
-7.00454 7.22764 9.38392 -0.203027 0.25178 0.946249
-6.98553 6.76278 9.48465 -0.19492 0.151334 0.969074
-6.97538 6.30734 9.53844 -0.190301 0.0724251 0.979051
-6.97181 5.85777 9.55739 -0.188595 0.0101692 0.982002
-6.97304 5.41151 9.55086 -0.189215 -0.0388847 0.981165
-6.97837 4.96721 9.5226 -0.192087 -0.0770671 0.978347
-6.98656 4.52332 9.47923 -0.196734 -0.10593 0.974718
-6.99705 4.07904 9.42363 -0.203076 -0.126488 0.970959
-7.00912 3.63362 9.35964 -0.210873 -0.139327 0.967533
-7.02205 3.18648 9.29113 -0.219819 -0.144729 0.964745
-7.03547 2.73737 9.22006 -0.229782 -0.142919 0.962691
-7.04826 2.28592 9.15225 -0.239988 -0.133851 0.961504
-7.06007 1.83221 9.08968 -0.250053 -0.117814 0.961038
-7.07016 1.37636 9.03624 -0.259181 -0.0952494 0.961121
-7.07797 0.918704 8.99487 -0.266601 -0.0670634 0.961471
-7.08276 0.459698 8.96945 -0.271335 -0.0346539 0.961861
-7.08454 2.29866e-15 8.96001 -0.273111 -1.75223e-16 0.961982
-7.08276 -0.459698 8.96945 -0.271335 0.0346539 0.961861
-7.07797 -0.918704 8.99487 -0.266601 0.0670634 0.961471
-7.07016 -1.37636 9.03624 -0.259181 0.0952494 0.961121
-7.06007 -1.83221 9.08968 -0.250053 0.117814 0.961038
-7.04826 -2.28592 9.15225 -0.239988 0.133851 0.961504
-7.03547 -2.73737 9.22006 -0.229782 0.142919 0.962691
-7.02205 -3.18648 9.29113 -0.219819 0.144729 0.964745
-7.00912 -3.63362 9.35964 -0.210873 0.139327 0.967533
-6.99705 -4.07904 9.42363 -0.203076 0.126488 0.970959
-6.98656 -4.52332 9.47923 -0.196734 0.10593 0.974718
-6.97837 -4.96721 9.5226 -0.192087 0.0770671 0.978347
-6.97304 -5.41151 9.55086 -0.189215 0.0388847 0.981165
-6.97181 -5.85777 9.55739 -0.188595 -0.0101692 0.982002
-6.97538 -6.30734 9.53844 -0.190301 -0.0724251 0.979051
-6.98553 -6.76278 9.48465 -0.19492 -0.151334 0.969074
-7.00454 -7.22764 9.38392 -0.203027 -0.25178 0.946249
-7.0368 -7.70835 9.21301 -0.215623 -0.380728 0.899196
-7.09142 -8.21792 8.92357 -0.233948 -0.546878 0.803861
-7.20216 -8.80176 8.33677 -0.262006 -0.762375 0.591723
-7.47267 8.85046 8.12561 -0.331476 0.784875 0.52354
-7.33616 8.23912 8.82664 -0.295634 0.559959 0.773981
-7.27476 7.72304 9.14194 -0.272956 0.389232 0.879769
-7.23933 7.23933 9.3239 -0.257348 0.257348 0.93142
-7.21864 6.77274 9.43014 -0.247273 0.154909 0.956483
-7.20763 6.31617 9.48668 -0.241512 0.074584 0.967527
-7.20377 5.86583 9.50653 -0.23939 0.0112864 0.970858
-7.20504 5.41897 9.49999 -0.240139 -0.0385746 0.969972
-7.21054 4.97404 9.47174 -0.243568 -0.0773731 0.966793
-7.21935 4.52976 9.42651 -0.249392 -0.106743 0.962502
-7.23054 4.08505 9.36904 -0.257257 -0.127687 0.95787
-7.24355 3.63923 9.30225 -0.267027 -0.140843 0.953341
-7.25762 3.19171 9.22997 -0.278353 -0.146506 0.94924
-7.27182 2.742 9.15705 -0.290611 -0.144726 0.945833
-7.28595 2.29007 9.08452 -0.303672 -0.135737 0.943058
-7.29868 1.83567 9.01912 -0.316261 -0.119543 0.94111
-7.30982 1.37909 8.96189 -0.327929 -0.0967455 0.939736
-7.31825 0.920571 8.91864 -0.337199 -0.0681362 0.938964
-7.32357 0.460655 8.89133 -0.343259 -0.0352255 0.93858
-7.3254 2.30344e-15 8.8819 -0.345387 -1.78087e-16 0.93846
-7.32357 -0.460655 8.89133 -0.343259 0.0352255 0.93858
-7.31825 -0.920571 8.91864 -0.337199 0.0681362 0.938964
-7.30982 -1.37909 8.96189 -0.327929 0.0967455 0.939736
-7.29868 -1.83567 9.01912 -0.316261 0.119543 0.94111
-7.28595 -2.29007 9.08452 -0.303672 0.135737 0.943058
-7.27182 -2.742 9.15705 -0.290611 0.144726 0.945833
-7.25762 -3.19171 9.22997 -0.278353 0.146506 0.94924
-7.24355 -3.63923 9.30225 -0.267027 0.140843 0.953341
-7.23054 -4.08505 9.36904 -0.257257 0.127687 0.95787
-7.21935 -4.52976 9.42651 -0.249392 0.106743 0.962502
-7.21054 -4.97404 9.47174 -0.243568 0.0773731 0.966793
-7.20504 -5.41897 9.49999 -0.240139 0.0385746 0.969972
-7.20377 -5.86583 9.50653 -0.23939 -0.0112864 0.970858
-7.20763 -6.31617 9.48668 -0.241512 -0.074584 0.967527
-7.21864 -6.77274 9.43014 -0.247273 -0.154909 0.956483
-7.23933 -7.23933 9.3239 -0.257348 -0.257348 0.93142
-7.27476 -7.72304 9.14194 -0.272956 -0.389232 0.879769
-7.33616 -8.23912 8.82664 -0.295634 -0.559959 0.773981
-7.47267 -8.85046 8.12561 -0.331476 -0.784875 0.52354
-7.79329 8.95414 7.67607 -0.418717 0.822407 0.385127
-7.58903 8.26821 8.69364 -0.366269 0.576197 0.730646
-7.51813 7.7427 9.04685 -0.338358 0.399964 0.851788
-7.47846 7.2548 9.24447 -0.319112 0.264418 0.910083
-7.45547 6.78574 9.35899 -0.306564 0.15942 0.938405
-7.44339 6.32769 9.41919 -0.299452 0.0773511 0.950971
-7.43885 5.8761 9.44181 -0.29659 0.0127259 0.95492
-7.44036 5.42859 9.43429 -0.297635 -0.0380943 0.953919
-7.44622 4.983 9.40508 -0.301793 -0.0776596 0.950205
-7.45568 4.53814 9.35796 -0.308909 -0.107631 0.944982
-7.46778 4.0929 9.29767 -0.318586 -0.129055 0.939068
-7.48176 3.64649 9.22805 -0.330505 -0.142538 0.932979
-7.49702 3.19839 9.15201 -0.344432 -0.14843 0.927003
-7.51261 2.74807 9.07437 -0.359655 -0.146793 0.921466
-7.52812 2.29542 8.9971 -0.375843 -0.137801 0.91638
-7.5422 1.84018 8.92697 -0.39151 -0.121463 0.912122
-7.55444 1.38262 8.86595 -0.405916 -0.0983452 0.908604
-7.56389 0.923014 8.8189 -0.41755 -0.0693088 0.906007
-7.56994 0.461911 8.78874 -0.425248 -0.0358523 0.904366
-7.57183 2.30973e-15 8.77931 -0.427718 -1.81216e-16 0.903912
-7.56994 -0.461911 8.78874 -0.425248 0.0358523 0.904366
-7.56389 -0.923014 8.8189 -0.41755 0.0693088 0.906007
-7.55444 -1.38262 8.86595 -0.405916 0.0983452 0.908604
-7.5422 -1.84018 8.92697 -0.39151 0.121463 0.912122
-7.52812 -2.29542 8.9971 -0.375843 0.137801 0.91638
-7.51261 -2.74807 9.07437 -0.359655 0.146793 0.921466
-7.49702 -3.19839 9.15201 -0.344432 0.14843 0.927003
-7.48176 -3.64649 9.22805 -0.330505 0.142538 0.932979
-7.46778 -4.0929 9.29767 -0.318586 0.129055 0.939068
-7.45568 -4.53814 9.35796 -0.308909 0.107631 0.944982
-7.44622 -4.983 9.40508 -0.301793 0.0776596 0.950205
-7.44036 -5.42859 9.43429 -0.297635 0.0380943 0.953919
-7.43885 -5.8761 9.44181 -0.29659 -0.0127259 0.95492
-7.44339 -6.32769 9.41919 -0.299452 -0.0773511 0.950971
-7.45547 -6.78574 9.35899 -0.306564 -0.15942 0.938405
-7.47846 -7.2548 9.24447 -0.319112 -0.264418 0.910083
-7.51813 -7.7427 9.04685 -0.338358 -0.399964 0.851788
-7.58903 -8.26821 8.69364 -0.366269 -0.576197 0.730646
-7.79329 -8.95414 7.67607 -0.418717 -0.822407 0.385127
-7.8549 8.30966 8.50409 -0.447732 0.596397 0.666218
-7.76867 7.76867 8.92124 -0.412922 0.412922 0.811782
-7.72304 7.27476 9.14194 -0.389232 0.272956 0.879769
-7.69709 6.80245 9.2675 -0.373771 0.164961 0.912734
-7.68351 6.34236 9.33319 -0.364964 0.0807825 0.92751
-7.67846 5.88945 9.35759 -0.361471 0.014631 0.932269
-7.67983 5.44079 9.35096 -0.362515 -0.0373634 0.931229
-7.68607 4.99432 9.32077 -0.367431 -0.0778155 0.92679
-7.69621 4.54867 9.27174 -0.375894 -0.108455 0.920294
-7.70946 4.1028 9.20766 -0.387649 -0.130409 0.912536
-7.72502 3.65585 9.13236 -0.402358 -0.144337 0.904033
-7.74172 3.20699 9.05158 -0.419169 -0.150451 0.895356
-7.75934 2.756 8.96635 -0.438078 -0.14902 0.886499
-7.77649 2.30238 8.88339 -0.457668 -0.139954 0.878039
-7.79256 1.84612 8.80565 -0.477111 -0.12349 0.870124
-7.80655 1.38732 8.73798 -0.494914 -0.100057 0.863162
-7.81726 0.926265 8.68618 -0.509134 -0.0705331 0.857792
-7.82409 0.463572 8.65315 -0.51846 -0.0364862 0.854323
-7.82643 2.31814e-15 8.64183 -0.521709 -1.8449e-16 0.853124
-7.82409 -0.463572 8.65315 -0.51846 0.0364862 0.854323
-7.81726 -0.926265 8.68618 -0.509134 0.0705331 0.857792
-7.80655 -1.38732 8.73798 -0.494914 0.100057 0.863162
-7.79256 -1.84612 8.80565 -0.477111 0.12349 0.870124
-7.77649 -2.30238 8.88339 -0.457668 0.139954 0.878039
-7.75934 -2.756 8.96635 -0.438078 0.14902 0.886499
-7.74172 -3.20699 9.05158 -0.419169 0.150451 0.895356
-7.72502 -3.65585 9.13236 -0.402358 0.144337 0.904033
-7.70946 -4.1028 9.20766 -0.387649 0.130409 0.912536
-7.69621 -4.54867 9.27174 -0.375894 0.108455 0.920294
-7.68607 -4.99432 9.32077 -0.367431 0.0778155 0.92679
-7.67983 -5.44079 9.35096 -0.362515 0.0373634 0.931229
-7.67846 -5.88945 9.35759 -0.361471 -0.014631 0.932269
-7.68351 -6.34236 9.33319 -0.364964 -0.0807825 0.92751
-7.69709 -6.80245 9.2675 -0.373771 -0.164961 0.912734
-7.72304 -7.27476 9.14194 -0.389232 -0.272956 0.879769
-7.76867 -7.76867 8.92124 -0.412922 -0.412922 0.811782
-7.8549 -8.30966 8.50409 -0.447732 -0.596397 0.666218
-8.14626 8.37528 8.20404 -0.543433 0.622718 0.562942
-8.02987 7.80382 8.75118 -0.498124 0.428469 0.753847
-7.97546 7.30104 9.007 -0.46916 0.283329 0.836429
-7.94522 6.82408 9.14915 -0.450091 0.171725 0.876315
-7.92949 6.36115 9.22309 -0.439134 0.0850295 0.894389
-7.92353 5.90633 9.25112 -0.434669 0.0170697 0.900428
-7.92476 5.45626 9.24533 -0.435679 -0.036264 0.899371
-7.9316 5.00877 9.21318 -0.441527 -0.0777308 0.893875
-7.94284 4.56228 9.16032 -0.451692 -0.109156 0.885471
-7.95749 4.11558 9.09148 -0.465701 -0.131683 0.87509
-7.97492 3.66787 9.00952 -0.48338 -0.146029 0.863145
-7.99392 3.21824 8.9202 -0.503785 -0.152439 0.850272
-8.01387 2.76628 8.82641 -0.526446 -0.151084 0.836677
-8.03374 2.31158 8.73299 -0.550243 -0.141999 0.822842
-8.05251 1.854 8.64478 -0.573803 -0.125347 0.809344
-8.06913 1.39362 8.56663 -0.595514 -0.101601 0.796894
-8.08197 0.930673 8.50625 -0.612846 -0.0716357 0.786948
-8.09022 0.465846 8.46751 -0.624202 -0.0370593 0.780384
-8.09303 2.32963e-15 8.45427 -0.628127 -1.87385e-16 0.778111
-8.09022 -0.465846 8.46751 -0.624202 0.0370593 0.780384
-8.08197 -0.930673 8.50625 -0.612846 0.0716357 0.786948
-8.06913 -1.39362 8.56663 -0.595514 0.101601 0.796894
-8.05251 -1.854 8.64478 -0.573803 0.125347 0.809344
-8.03374 -2.31158 8.73299 -0.550243 0.141999 0.822842
-8.01387 -2.76628 8.82641 -0.526446 0.151084 0.836677
-7.99392 -3.21824 8.9202 -0.503785 0.152439 0.850272
-7.97492 -3.66787 9.00952 -0.48338 0.146029 0.863145
-7.95749 -4.11558 9.09148 -0.465701 0.131683 0.87509
-7.94284 -4.56228 9.16032 -0.451692 0.109156 0.885471
-7.9316 -5.00877 9.21318 -0.441527 0.0777308 0.893875
-7.92476 -5.45626 9.24533 -0.435679 0.036264 0.899371
-7.92353 -5.90633 9.25112 -0.434669 -0.0170697 0.900428
-7.92949 -6.36115 9.22309 -0.439134 -0.0850295 0.894389
-7.94522 -6.82408 9.14915 -0.450091 -0.171725 0.876315
-7.97546 -7.30104 9.007 -0.46916 -0.283329 0.836429
-8.02987 -7.80382 8.75118 -0.498124 -0.428469 0.753847
