# x y Mean_Curvature nx ny
1.89707 4.80891 1.81936 -0.152381 -0.386273 0.909711
1.90792 4.494 1.65816 -0.218451 -0.514548 0.829168
1.9231 4.18392 1.4327 -0.291386 -0.633943 0.716387
1.94444 3.88005 1.11574 -0.371836 -0.741985 0.557849
1.97781 3.58975 0.619947 -0.458796 -0.832719 0.309976
1.97781 -3.58975 0.619947 -0.458796 0.832719 0.309976
1.94444 -3.88005 1.11574 -0.371836 0.741985 0.557849
1.9231 -4.18392 1.4327 -0.291386 0.633943 0.716387
1.90792 -4.494 1.65816 -0.218451 0.514548 0.829168
1.89707 -4.80891 1.81936 -0.152381 0.386273 0.909711
1.88982 -5.12897 1.9271 -0.0923331 0.250593 0.963679
1.88576 -5.45493 1.98734 -0.037268 0.107805 0.993473
1.88502 -5.78878 1.9984 0.0136322 -0.0418636 0.99903
1.88788 -6.13323 1.9558 0.0613679 -0.199368 0.978001
1.89511 -6.49271 1.84847 0.106982 -0.366524 0.924238
1.73333 6.86846 1.68063 0.132605 0.525459 0.840422
1.72183 6.48812 1.86841 0.0914086 0.344441 0.934347
1.71584 6.13094 1.96628 0.0493927 0.176487 0.983063
1.71382 5.78858 1.99935 0.00523225 0.0176724 0.99983
1.71497 5.45624 1.98061 -0.0420399 -0.133752 0.990123
1.71918 5.13179 1.91167 -0.0933708 -0.278713 0.955825
1.72643 4.81336 1.79327 -0.149581 -0.417038 0.896496
1.73719 4.50044 1.6175 -0.211763 -0.548604 0.80882
1.75224 4.19287 1.3716 -0.280638 -0.671528 0.685779
1.7739 3.89322 1.01769 -0.356935 -0.783372 0.508847
1.8109 3.61502 0.413172 -0.438223 -0.874803 0.206591
1.8109 -3.61502 0.413172 -0.438223 0.874803 0.206591
1.7739 -3.89322 1.01769 -0.356935 0.783372 0.508847
1.75224 -4.19287 1.3716 -0.280638 0.671528 0.685779
1.73719 -4.50044 1.6175 -0.211763 0.548604 0.80882
1.72643 -4.81336 1.79327 -0.149581 0.417038 0.896496
1.71918 -5.13179 1.91167 -0.0933708 0.278713 0.955825
1.71497 -5.45624 1.98061 -0.0420399 0.133752 0.990123
1.71382 -5.78858 1.99935 0.00523225 -0.0176724 0.99983
1.71584 -6.13094 1.96628 0.0493927 -0.176487 0.983063
1.72183 -6.48812 1.86841 0.0914086 -0.344441 0.934347
1.55851 6.8611 1.71095 0.114725 0.505059 0.855426
1.54889 6.48416 1.88555 0.0774372 0.324178 0.942822
1.54402 6.12927 1.97394 0.0391731 0.155505 0.987058
1.54257 5.78838 2.00034 -0.00122097 -0.00458162 0.999989
1.54407 5.45773 1.97295 -0.0446504 -0.157823 0.986457
1.5483 5.1346 1.89629 -0.0919163 -0.304821 0.947964
1.55541 4.81781 1.76722 -0.14394 -0.445848 0.88346
1.56584 4.50673 1.57783 -0.201678 -0.580461 0.788917
1.58057 4.20182 1.31054 -0.265956 -0.707022 0.655277
1.60226 3.90678 0.916755 -0.337238 -0.822284 0.458389
1.60226 -3.90678 0.916755 -0.337238 0.822284 0.458389
1.58057 -4.20182 1.31054 -0.265956 0.707022 0.655277
1.56584 -4.50673 1.57783 -0.201678 0.580461 0.788917
1.55541 -4.81781 1.76722 -0.14394 0.445848 0.88346
1.5483 -5.1346 1.89629 -0.0919163 0.304821 0.947964
1.54407 -5.45773 1.97295 -0.0446504 0.157823 0.986457
1.54257 -5.78838 2.00034 -0.00122097 0.00458162 0.999989
1.54402 -6.12927 1.97394 0.0391731 -0.155505 0.987058
1.54889 -6.48416 1.88555 0.0774372 -0.324178 0.942822
1.38428 6.85511 1.73565 0.0983276 0.48693 0.867889
1.37623 6.48086 1.89989 0.0649508 0.305861 0.949858
1.37228 6.12779 1.9807 0.0305529 0.136431 0.990178
1.37136 5.78856 1.99945 -0.00589847 -0.0248977 0.999673
1.37303 5.45921 1.96534 -0.0452174 -0.179786 0.982666
1.37721 5.13758 1.87998 -0.0882083 -0.329055 0.940182
1.38401 4.82225 1.7412 -0.135648 -0.472634 0.870756
1.3939 4.51287 1.53916 -0.188425 -0.610041 0.769641
1.40799 4.21047 1.25143 -0.247395 -0.739813 0.625678
1.42942 3.92059 0.813913 -0.31289 -0.858191 0.40695
1.42942 -3.92059 0.813913 -0.31289 0.858191 0.40695
1.40799 -4.21047 1.25143 -0.247395 0.739813 0.625678
1.3939 -4.51287 1.53916 -0.188425 0.610041 0.769641
1.38401 -4.82225 1.7412 -0.135648 0.472634 0.870756
1.37721 -5.13758 1.87998 -0.0882083 0.329055 0.940182
1.37303 -5.45921 1.96534 -0.0452174 0.179786 0.982666
1.37136 -5.78856 1.99945 -0.00589847 0.0248977 0.999673
1.37228 -6.12779 1.9807 0.0305529 -0.136431 0.990178
1.37623 -6.48086 1.89989 0.0649508 -0.305861 0.949858
1.21046 6.85003 1.75661 0.0831919 0.470786 0.878316
1.20382 6.4782 1.91142 0.0538137 0.28959 0.955637
1.20065 6.12672 1.98559 0.0233983 0.119398 0.992571
1.20013 5.78893 1.99766 -0.00894505 -0.0431473 0.999029
1.20184 5.46069 1.95776 -0.0439184 -0.199548 0.978903
1.20579 5.14021 1.86563 -0.0822597 -0.350669 0.93288
1.21211 4.82619 1.71811 -0.1247 -0.49651 0.859027
1.22131 4.51853 1.50343 -0.172096 -0.63671 0.751654
1.23456 4.21884 1.19431 -0.225278 -0.76984 0.597156
1.25535 3.93466 0.709175 -0.284202 -0.89078 0.354598
1.25535 -3.93466 0.709175 -0.284202 0.89078 0.354598
1.23456 -4.21884 1.19431 -0.225278 0.76984 0.597156
1.22131 -4.51853 1.50343 -0.172096 0.63671 0.751654
1.21211 -4.82619 1.71811 -0.1247 0.49651 0.859027
1.20579 -5.14021 1.86563 -0.0822597 0.350669 0.93288
1.20184 -5.46069 1.95776 -0.0439184 0.199548 0.978903
1.20013 -5.78893 1.99766 -0.00894505 0.0431473 0.999029
1.20065 -6.12672 1.98559 0.0233983 -0.119398 0.992571
1.20382 -6.4782 1.91142 0.0538137 -0.28959 0.955637
1.03699 6.84585 1.77384 0.0691881 0.456757 0.886897
1.03158 6.47596 1.9211 0.0438589 0.275334 0.960348
1.0291 6.12605 1.98862 0.0175494 0.104469 0.994373
1.02879 5.7891 1.99686 -0.0104991 -0.0590789 0.998198
1.03051 5.46215 1.95024 -0.0409462 -0.217033 0.975305
1.03411 5.14264 1.85229 -0.0743603 -0.369796 0.926132
1.03985 4.82995 1.69604 -0.111508 -0.517943 0.848116
1.04816 4.52388 1.46968 -0.153081 -0.660698 0.734877
1.06023 4.22663 1.1411 -0.199817 -0.796573 0.570565
1.07995 3.94873 0.604488 -0.251465 -0.919459 0.30226
1.07995 -3.94873 0.604488 -0.251465 0.919459 0.30226
1.06023 -4.22663 1.1411 -0.199817 0.796573 0.570565
1.04816 -4.52388 1.46968 -0.153081 0.660698 0.734877
1.03985 -4.82995 1.69604 -0.111508 0.517943 0.848116
1.03411 -5.14264 1.85229 -0.0743603 0.369796 0.926132
1.03051 -5.46215 1.95024 -0.0409462 0.217033 0.975305
1.02879 -5.7891 1.99686 -0.0104991 0.0590789 0.998198
1.0291 -6.12605 1.98862 0.0175494 -0.104469 0.994373
1.03158 -6.47596 1.9211 0.0438589 -0.275334 0.960348
0.863803 6.84258 1.78732 0.0561692 0.444942 0.893796
0.859497 6.47438 1.92798 0.0349511 0.263278 0.964087
0.857545 6.12538 1.9917 0.0128375 0.0916972 0.995704
0.857469 5.78965 1.9942 -0.0107942 -0.0728827 0.997282
0.859015 5.46342 1.94371 -0.0364765 -0.231994 0.972033
0.862192 5.1449 1.83995 -0.0647493 -0.386374 0.920067
0.867184 4.83322 1.6769 -0.0962267 -0.536316 0.838514
0.874442 4.52861 1.43985 -0.131573 -0.681398 0.71999
0.885068 4.23371 1.09279 -0.171377 -0.819781 0.546433
0.903163 3.96252 0.501799 -0.215118 -0.943805 0.250911
0.903163 -3.96252 0.501799 -0.215118 0.943805 0.250911
0.885068 -4.23371 1.09279 -0.171377 0.819781 0.546433
0.874442 -4.52861 1.43985 -0.131573 0.681398 0.71999
0.867184 -4.83322 1.6769 -0.0962267 0.536316 0.838514
0.862192 -5.1449 1.83995 -0.0647493 0.386374 0.920067
0.859015 -5.46342 1.94371 -0.0364765 0.231994 0.972033
0.857469 -5.78965 1.9942 -0.0107942 0.0728827 0.997282
0.857545 -6.12538 1.9917 0.0128375 -0.0916972 0.995704
0.859497 -6.47438 1.92798 0.0349511 -0.263278 0.964087
0.690796 6.83976 1.79896 0.0439374 0.435036 0.89934
0.68749 6.473 1.93395 0.0269003 0.253278 0.96702
0.686045 6.12512 1.99292 0.00908958 0.0811532 0.99666
0.686054 5.78999 1.99254 -0.00997921 -0.08422 0.996397
0.687386 5.4645 1.9382 -0.0307384 -0.24436 0.969197
0.690046 5.14679 1.8296 -0.0536421 -0.400096 0.914902
0.694183 4.83598 1.66071 -0.0791759 -0.551574 0.83036
0.700204 4.53257 1.41491 -0.107906 -0.6985 0.707428
0.70911 4.23978 1.05131 -0.140331 -0.839038 0.525663
0.724966 3.97566 0.404026 -0.175695 -0.963495 0.202012
0.724966 -3.97566 0.404026 -0.175695 0.963495 0.202012
0.70911 -4.23978 1.05131 -0.140331 0.839038 0.525663
0.700204 -4.53257 1.41491 -0.107906 0.6985 0.707428
0.694183 -4.83598 1.66071 -0.0791759 0.551574 0.83036
0.690046 -5.14679 1.8296 -0.0536421 0.400096 0.914902
0.687386 -5.4645 1.9382 -0.0307384 0.24436 0.969197
0.686054 -5.78999 1.99254 -0.00997921 0.08422 0.996397
0.686045 -6.12512 1.99292 0.00908958 -0.0811532 0.99666
0.68749 -6.473 1.93395 0.0269003 -0.253278 0.96702
0.517975 6.83784 1.80685 0.0323832 0.427495 0.903438
0.515564 6.47205 1.93806 0.0195559 0.245492 0.969201
0.514533 6.12484 1.99418 0.00612361 0.0728935 0.997321
0.514593 5.79032 1.99093 -0.00827664 -0.0931308 0.995619
0.515644 5.46537 1.93369 -0.0239716 -0.254077 0.966887
0.517711 5.14832 1.82122 -0.0413208 -0.41091 0.910739
0.520903 4.83824 1.64748 -0.0606875 -0.563676 0.823764
0.525562 4.5359 1.39389 -0.0825295 -0.712277 0.69703
0.532475 4.24471 1.01764 -0.107154 -0.854199 0.508784
0.5454 3.98774 0.314086 -0.133826 -0.978482 0.157045
0.5454 -3.98774 0.314086 -0.133826 0.978482 0.157045
0.532475 -4.24471 1.01764 -0.107154 0.854199 0.508784
0.525562 -4.5359 1.39389 -0.0825295 0.712277 0.69703
0.520903 -4.83824 1.64748 -0.0606875 0.563676 0.823764
0.517711 -5.14832 1.82122 -0.0413208 0.41091 0.910739
0.515644 -5.46537 1.93369 -0.0239716 0.254077 0.966887
0.514593 -5.79032 1.99093 -0.00827664 0.0931308 0.995619
0.514533 -6.12484 1.99418 0.00612361 -0.0728935 0.997321
0.515564 -6.47205 1.93806 0.0195559 -0.245492 0.969201
0.345253 6.83638 1.81289 0.0213115 0.42199 0.90635
0.343681 6.47131 1.94127 0.0127393 0.239873 0.970721
0.343017 6.12455 1.99549 0.00375077 0.0669698 0.997748
0.34308 5.79045 1.99032 -0.00589299 -0.099461 0.995024
0.343817 5.46605 1.9302 -0.0164236 -0.261105 0.965171
0.345218 5.14931 1.81578 -0.0280578 -0.418514 0.907777
0.347394 4.83983 1.63816 -0.0410786 -0.5723 0.819015
0.350559 4.53815 1.3797 -0.0557625 -0.721871 0.689778
0.355311 4.2485 0.991792 -0.0723713 -0.865354 0.495908
0.364522 3.99772 0.239736 -0.0901511 -0.988689 0.119865
0.364522 -3.99772 0.239736 -0.0901511 0.988689 0.119865
0.355311 -4.2485 0.991792 -0.0723713 0.865354 0.495908
0.350559 -4.53815 1.3797 -0.0557625 0.721871 0.689778
0.347394 -4.83983 1.63816 -0.0410786 0.5723 0.819015
0.345218 -5.14931 1.81578 -0.0280578 0.418514 0.907777
0.343817 -5.46605 1.9302 -0.0164236 0.261105 0.965171
0.34308 -5.79045 1.99032 -0.00589299 0.099461 0.995024
0.343017 -6.12455 1.99549 0.00375077 -0.0669698 0.997748
0.343681 -6.47131 1.94127 0.0127393 -0.239873 0.970721
0.17261 6.83559 1.81614 0.010574 0.418746 0.908042
0.17183 6.47078 1.94358 0.006279 0.236455 0.971622
0.171509 6.12446 1.99589 0.00177539 0.0633977 0.997987
0.171553 5.79076 1.98881 -0.00306354 -0.10341 0.994634
0.171921 5.46635 1.92868 -0.00834118 -0.265214 0.964153
0.172639 5.15012 1.81136 -0.014193 -0.423402 0.905831
0.173739 4.84092 1.63179 -0.0207341 -0.577717 0.815973
0.17534 4.53962 1.37041 -0.0281128 -0.727853 0.685157
0.177751 4.25071 0.976667 -0.0364606 -0.871913 0.488301
0.177751 -4.25071 0.976667 -0.0364606 0.871913 0.488301
0.17534 -4.53962 1.37041 -0.0281128 0.727853 0.685157
0.173739 -4.84092 1.63179 -0.0207341 0.577717 0.815973
0.172639 -5.15012 1.81136 -0.014193 0.423402 0.905831
0.171921 -5.46635 1.92868 -0.00834118 0.265214 0.964153
0.171553 -5.79076 1.98881 -0.00306354 0.10341 0.994634
0.171509 -6.12446 1.99589 0.00177539 -0.0633977 0.997987
0.17183 -6.47078 1.94358 0.006279 -0.236455 0.971622
1.72568e-15 6.83525 1.81754 1.05431e-16 0.417601 0.90863
1.71793e-15 6.47067 1.94403 6.24824e-17 0.235343 0.971912
1.71473e-15 6.12437 1.99635 1.74182e-17 0.0622113 0.998063
1.71516e-15 5.79067 1.98926 -3.09852e-17 -0.104611 0.994513
1.71896e-15 5.46664 1.92721 -8.38902e-17 -0.266787 0.963755
1.72609e-15 5.15021 1.81085 -1.42361e-16 -0.42477 0.905301
1.73714e-15 4.84117 1.63031 -2.07879e-16 -0.579329 0.815094
1.75327e-15 4.54016 1.367 -2.8188e-16 -0.729941 0.68351
1.7775e-15 4.2515 0.971303 -3.65477e-16 -0.874166 0.485627
1.7775e-15 -4.2515 0.971303 -3.65477e-16 0.874166 0.485627
1.75327e-15 -4.54016 1.367 -2.8188e-16 0.729941 0.68351
1.73714e-15 -4.84117 1.63031 -2.07879e-16 0.579329 0.815094
1.72609e-15 -5.15021 1.81085 -1.42361e-16 0.42477 0.905301
1.71896e-15 -5.46664 1.92721 -8.38902e-17 0.266787 0.963755
1.71516e-15 -5.79067 1.98926 -3.09852e-17 0.104611 0.994513
1.71473e-15 -6.12437 1.99635 1.74182e-17 -0.0622113 0.998063
1.71793e-15 -6.47067 1.94403 6.24824e-17 -0.235343 0.971912
-0.17261 6.83559 1.81614 -0.010574 0.418746 0.908042
-0.17183 6.47078 1.94358 -0.006279 0.236455 0.971622
-0.171509 6.12446 1.99589 -0.00177539 0.0633977 0.997987
-0.171553 5.79076 1.98881 0.00306354 -0.10341 0.994634
-0.171921 5.46635 1.92868 0.00834118 -0.265214 0.964153
-0.172639 5.15012 1.81136 0.014193 -0.423402 0.905831
-0.173739 4.84092 1.63179 0.0207341 -0.577717 0.815973
-0.17534 4.53962 1.37041 0.0281128 -0.727853 0.685157
-0.177751 4.25071 0.976667 0.0364606 -0.871913 0.488301
-0.177751 -4.25071 0.976667 0.0364606 0.871913 0.488301
-0.17534 -4.53962 1.37041 0.0281128 0.727853 0.685157
-0.173739 -4.84092 1.63179 0.0207341 0.577717 0.815973
-0.172639 -5.15012 1.81136 0.014193 0.423402 0.905831
-0.171921 -5.46635 1.92868 0.00834118 0.265214 0.964153
-0.171553 -5.79076 1.98881 0.00306354 0.10341 0.994634
-0.171509 -6.12446 1.99589 -0.00177539 -0.0633977 0.997987
-0.17183 -6.47078 1.94358 -0.006279 -0.236455 0.971622
-0.345253 6.83638 1.81289 -0.0213115 0.42199 0.90635
-0.343681 6.47131 1.94127 -0.0127393 0.239873 0.970721
-0.343017 6.12455 1.99549 -0.00375077 0.0669698 0.997748
-0.34308 5.79045 1.99032 0.00589299 -0.099461 0.995024
-0.343817 5.46605 1.9302 0.0164236 -0.261105 0.965171
-0.345218 5.14931 1.81578 0.0280578 -0.418514 0.907777
-0.347394 4.83983 1.63816 0.0410786 -0.5723 0.819015
-0.350559 4.53815 1.3797 0.0557625 -0.721871 0.689778
-0.355311 4.2485 0.991792 0.0723713 -0.865354 0.495908
-0.364522 3.99772 0.239736 0.0901511 -0.988689 0.119865
-0.364522 -3.99772 0.239736 0.0901511 0.988689 0.119865
-0.355311 -4.2485 0.991792 0.0723713 0.865354 0.495908
-0.350559 -4.53815 1.3797 0.0557625 0.721871 0.689778
-0.347394 -4.83983 1.63816 0.0410786 0.5723 0.819015
-0.345218 -5.14931 1.81578 0.0280578 0.418514 0.907777
-0.343817 -5.46605 1.9302 0.0164236 0.261105 0.965171
-0.34308 -5.79045 1.99032 0.00589299 0.099461 0.995024
-0.343017 -6.12455 1.99549 -0.00375077 -0.0669698 0.997748
-0.343681 -6.47131 1.94127 -0.0127393 -0.239873 0.970721
-0.517975 6.83784 1.80685 -0.0323832 0.427495 0.903438
-0.515564 6.47205 1.93806 -0.0195559 0.245492 0.969201
-0.514533 6.12484 1.99418 -0.00612361 0.0728935 0.997321
-0.514593 5.79032 1.99093 0.00827664 -0.0931308 0.995619
-0.515644 5.46537 1.93369 0.0239716 -0.254077 0.966887
-0.517711 5.14832 1.82122 0.0413208 -0.41091 0.910739
-0.520903 4.83824 1.64748 0.0606875 -0.563676 0.823764
-0.525562 4.5359 1.39389 0.0825295 -0.712277 0.69703
-0.532475 4.24471 1.01764 0.107154 -0.854199 0.508784
-0.5454 3.98774 0.314086 0.133826 -0.978482 0.157045
-0.5454 -3.98774 0.314086 0.133826 0.978482 0.157045
-0.532475 -4.24471 1.01764 0.107154 0.854199 0.508784
-0.525562 -4.5359 1.39389 0.0825295 0.712277 0.69703
-0.520903 -4.83824 1.64748 0.0606875 0.563676 0.823764
-0.517711 -5.14832 1.82122 0.0413208 0.41091 0.910739
-0.515644 -5.46537 1.93369 0.0239716 0.254077 0.966887
-0.514593 -5.79032 1.99093 0.00827664 0.0931308 0.995619
-0.514533 -6.12484 1.99418 -0.00612361 -0.0728935 0.997321
-0.515564 -6.47205 1.93806 -0.0195559 -0.245492 0.969201
-0.690796 6.83976 1.79896 -0.0439374 0.435036 0.89934
-0.68749 6.473 1.93395 -0.0269003 0.253278 0.96702
-0.686045 6.12512 1.99292 -0.00908958 0.0811532 0.99666
-0.686054 5.78999 1.99254 0.00997921 -0.08422 0.996397
-0.687386 5.4645 1.9382 0.0307384 -0.24436 0.969197
-0.690046 5.14679 1.8296 0.0536421 -0.400096 0.914902
-0.694183 4.83598 1.66071 0.0791759 -0.551574 0.83036
-0.700204 4.53257 1.41491 0.107906 -0.6985 0.707428
-0.70911 4.23978 1.05131 0.140331 -0.839038 0.525663
-0.724966 3.97566 0.404026 0.175695 -0.963495 0.202012
-0.724966 -3.97566 0.404026 0.175695 0.963495 0.202012
-0.70911 -4.23978 1.05131 0.140331 0.839038 0.525663
-0.700204 -4.53257 1.41491 0.107906 0.6985 0.707428
-0.694183 -4.83598 1.66071 0.0791759 0.551574 0.83036
-0.690046 -5.14679 1.8296 0.0536421 0.400096 0.914902
-0.687386 -5.4645 1.9382 0.0307384 0.24436 0.969197
-0.686054 -5.78999 1.99254 0.00997921 0.08422 0.996397
-0.686045 -6.12512 1.99292 -0.00908958 -0.0811532 0.99666
-0.68749 -6.473 1.93395 -0.0269003 -0.253278 0.96702
-0.863803 6.84258 1.78732 -0.0561692 0.444942 0.893796
-0.859497 6.47438 1.92798 -0.0349511 0.263278 0.964087
-0.857545 6.12538 1.9917 -0.0128375 0.0916972 0.995704
-0.857469 5.78965 1.9942 0.0107942 -0.0728827 0.997282
-0.859015 5.46342 1.94371 0.0364765 -0.231994 0.972033
-0.862192 5.1449 1.83995 0.0647493 -0.386374 0.920067
-0.867184 4.83322 1.6769 0.0962267 -0.536316 0.838514
-0.874442 4.52861 1.43985 0.131573 -0.681398 0.71999
-0.885068 4.23371 1.09279 0.171377 -0.819781 0.546433
-0.903163 3.96252 0.501799 0.215118 -0.943805 0.250911
-0.903163 -3.96252 0.501799 0.215118 0.943805 0.250911
-0.885068 -4.23371 1.09279 0.171377 0.819781 0.546433
-0.874442 -4.52861 1.43985 0.131573 0.681398 0.71999
-0.867184 -4.83322 1.6769 0.0962267 0.536316 0.838514
-0.862192 -5.1449 1.83995 0.0647493 0.386374 0.920067
-0.859015 -5.46342 1.94371 0.0364765 0.231994 0.972033
-0.857469 -5.78965 1.9942 0.0107942 0.0728827 0.997282
-0.857545 -6.12538 1.9917 -0.0128375 -0.0916972 0.995704
-0.859497 -6.47438 1.92798 -0.0349511 -0.263278 0.964087
-1.03699 6.84585 1.77384 -0.0691881 0.456757 0.886897
-1.03158 6.47596 1.9211 -0.0438589 0.275334 0.960348
-1.0291 6.12605 1.98862 -0.0175494 0.104469 0.994373
-1.02879 5.7891 1.99686 0.0104991 -0.0590789 0.998198
-1.03051 5.46215 1.95024 0.0409462 -0.217033 0.975305
-1.03411 5.14264 1.85229 0.0743603 -0.369796 0.926132
-1.03985 4.82995 1.69604 0.111508 -0.517943 0.848116
-1.04816 4.52388 1.46968 0.153081 -0.660698 0.734877
-1.06023 4.22663 1.1411 0.199817 -0.796573 0.570565
-1.07995 3.94873 0.604488 0.251465 -0.919459 0.30226
-1.07995 -3.94873 0.604488 0.251465 0.919459 0.30226
-1.06023 -4.22663 1.1411 0.199817 0.796573 0.570565
-1.04816 -4.52388 1.46968 0.153081 0.660698 0.734877
-1.03985 -4.82995 1.69604 0.111508 0.517943 0.848116
-1.03411 -5.14264 1.85229 0.0743603 0.369796 0.926132
-1.03051 -5.46215 1.95024 0.0409462 0.217033 0.975305
-1.02879 -5.7891 1.99686 0.0104991 0.0590789 0.998198
-1.0291 -6.12605 1.98862 -0.0175494 -0.104469 0.994373
-1.03158 -6.47596 1.9211 -0.0438589 -0.275334 0.960348
-1.21046 6.85003 1.75661 -0.0831919 0.470786 0.878316
-1.20382 6.4782 1.91142 -0.0538137 0.28959 0.955637
-1.20065 6.12672 1.98559 -0.0233983 0.119398 0.992571
-1.20013 5.78893 1.99766 0.00894505 -0.0431473 0.999029
-1.20184 5.46069 1.95776 0.0439184 -0.199548 0.978903
-1.20579 5.14021 1.86563 0.0822597 -0.350669 0.93288
-1.21211 4.82619 1.71811 0.1247 -0.49651 0.859027
-1.22131 4.51853 1.50343 0.172096 -0.63671 0.751654
-1.23456 4.21884 1.19431 0.225278 -0.76984 0.597156
-1.25535 3.93466 0.709175 0.284202 -0.89078 0.354598
-1.25535 -3.93466 0.709175 0.284202 0.89078 0.354598
-1.23456 -4.21884 1.19431 0.225278 0.76984 0.597156
-1.22131 -4.51853 1.50343 0.172096 0.63671 0.751654
-1.21211 -4.82619 1.71811 0.1247 0.49651 0.859027
-1.20579 -5.14021 1.86563 0.0822597 0.350669 0.93288
-1.20184 -5.46069 1.95776 0.0439184 0.199548 0.978903
-1.20013 -5.78893 1.99766 0.00894505 0.0431473 0.999029
-1.20065 -6.12672 1.98559 -0.0233983 -0.119398 0.992571
-1.20382 -6.4782 1.91142 -0.0538137 -0.28959 0.955637
-1.38428 6.85511 1.73565 -0.0983276 0.48693 0.867889
-1.37623 6.48086 1.89989 -0.0649508 0.305861 0.949858
-1.37228 6.12779 1.9807 -0.0305529 0.136431 0.990178
-1.37136 5.78856 1.99945 0.00589847 -0.0248977 0.999673
-1.37303 5.45921 1.96534 0.0452174 -0.179786 0.982666
-1.37721 5.13758 1.87998 0.0882083 -0.329055 0.940182
-1.38401 4.82225 1.7412 0.135648 -0.472634 0.870756
-1.3939 4.51287 1.53916 0.188425 -0.610041 0.769641
-1.40799 4.21047 1.25143 0.247395 -0.739813 0.625678
-1.42942 3.92059 0.813913 0.31289 -0.858191 0.40695
-1.42942 -3.92059 0.813913 0.31289 0.858191 0.40695
-1.40799 -4.21047 1.25143 0.247395 0.739813 0.625678
-1.3939 -4.51287 1.53916 0.188425 0.610041 0.769641
-1.38401 -4.82225 1.7412 0.135648 0.472634 0.870756
-1.37721 -5.13758 1.87998 0.0882083 0.329055 0.940182
-1.37303 -5.45921 1.96534 0.0452174 0.179786 0.982666
-1.37136 -5.78856 1.99945 0.00589847 0.0248977 0.999673
-1.37228 -6.12779 1.9807 -0.0305529 -0.136431 0.990178
-1.37623 -6.48086 1.89989 -0.0649508 -0.305861 0.949858
-1.55851 6.8611 1.71095 -0.114725 0.505059 0.855426
-1.54889 6.48416 1.88555 -0.0774372 0.324178 0.942822
-1.54402 6.12927 1.97394 -0.0391731 0.155505 0.987058
-1.54257 5.78838 2.00034 0.00122097 -0.00458162 0.999989
-1.54407 5.45773 1.97295 0.0446504 -0.157823 0.986457
-1.5483 5.1346 1.89629 0.0919163 -0.304821 0.947964
-1.55541 4.81781 1.76722 0.14394 -0.445848 0.88346
-1.56584 4.50673 1.57783 0.201678 -0.580461 0.788917
-1.58057 4.20182 1.31054 0.265956 -0.707022 0.655277
-1.60226 3.90678 0.916755 0.337238 -0.822284 0.458389
-1.60226 -3.90678 0.916755 0.337238 0.822284 0.458389
-1.58057 -4.20182 1.31054 0.265956 0.707022 0.655277
-1.56584 -4.50673 1.57783 0.201678 0.580461 0.788917
-1.55541 -4.81781 1.76722 0.14394 0.445848 0.88346
-1.5483 -5.1346 1.89629 0.0919163 0.304821 0.947964
-1.54407 -5.45773 1.97295 0.0446504 0.157823 0.986457
-1.54257 -5.78838 2.00034 0.00122097 0.00458162 0.999989
-1.54402 -6.12927 1.97394 -0.0391731 -0.155505 0.987058
-1.54889 -6.48416 1.88555 -0.0774372 -0.324178 0.942822
-1.73333 6.86846 1.68063 -0.132605 0.525459 0.840422
-1.72183 6.48812 1.86841 -0.0914086 0.344441 0.934347
-1.71584 6.13094 1.96628 -0.0493927 0.176487 0.983063
-1.71382 5.78858 1.99935 -0.00523225 0.0176724 0.99983
-1.71497 5.45624 1.98061 0.0420399 -0.133752 0.990123
-1.71918 5.13179 1.91167 0.0933708 -0.278713 0.955825
-1.72643 4.81336 1.79327 0.149581 -0.417038 0.896496
-1.73719 4.50044 1.6175 0.211763 -0.548604 0.80882
-1.75224 4.19287 1.3716 0.280638 -0.671528 0.685779
-1.7739 3.89322 1.01769 0.356935 -0.783372 0.508847
-1.8109 3.61502 0.413172 0.438223 -0.874803 0.206591
-1.8109 -3.61502 0.413172 0.438223 0.874803 0.206591
-1.7739 -3.89322 1.01769 0.356935 0.783372 0.508847
-1.75224 -4.19287 1.3716 0.280638 0.671528 0.685779
-1.73719 -4.50044 1.6175 0.211763 0.548604 0.80882
-1.72643 -4.81336 1.79327 0.149581 0.417038 0.896496
-1.71918 -5.13179 1.91167 0.0933708 0.278713 0.955825
-1.71497 -5.45624 1.98061 0.0420399 0.133752 0.990123
-1.71382 -5.78858 1.99935 -0.00523225 -0.0176724 0.99983
-1.71584 -6.13094 1.96628 -0.0493927 -0.176487 0.983063
-1.72183 -6.48812 1.86841 -0.0914086 -0.344441 0.934347
-1.90876 6.87694 1.64564 -0.152026 0.547723 0.822732
-1.89511 6.49271 1.84847 -0.106982 0.366524 0.924238
-1.88788 6.13323 1.9558 -0.0613679 0.199368 0.978001
-1.88502 5.78878 1.9984 -0.0136322 0.0418636 0.99903
-1.88576 5.45493 1.98734 0.037268 -0.107805 0.993473
-1.88982 5.12897 1.9271 0.0923331 -0.250593 0.963679
-1.89707 4.80891 1.81936 0.152381 -0.386273 0.909711
-1.90792 4.494 1.65816 0.218451 -0.514548 0.829168
-1.9231 4.18392 1.4327 0.291386 -0.633943 0.716387
-1.94444 3.88005 1.11574 0.371836 -0.741985 0.557849
-1.97781 3.58975 0.619947 0.458796 -0.832719 0.309976
-1.97781 -3.58975 0.619947 0.458796 0.832719 0.309976
-1.94444 -3.88005 1.11574 0.371836 0.741985 0.557849
-1.9231 -4.18392 1.4327 0.291386 0.633943 0.716387
-1.90792 -4.494 1.65816 0.218451 0.514548 0.829168
-1.89707 -4.80891 1.81936 0.152381 0.386273 0.909711
-1.88982 -5.12897 1.9271 0.0923331 0.250593 0.963679
-1.88576 -5.45493 1.98734 0.037268 0.107805 0.993473
-1.88502 -5.78878 1.9984 -0.0136322 -0.0418636 0.99903
-1.88788 -6.13323 1.9558 -0.0613679 -0.199368 0.978001
-1.89511 -6.49271 1.84847 -0.106982 -0.366524 0.924238
-2.08511 6.88725 1.60314 -0.173266 0.57231 0.801524
-2.06883 6.49818 1.82479 -0.124304 0.390437 0.912199
-2.06012 6.13593 1.94346 -0.075202 0.223984 0.971687
-2.05636 5.78956 1.99463 -0.0240752 0.0677823 0.99741
-2.05654 5.45398 1.99219 0.0302312 -0.0801736 0.996322
-2.06019 5.12615 1.94255 0.0886447 -0.220565 0.971336
-2.06731 4.80445 1.84548 0.152169 -0.353641 0.922921
-2.07808 4.48755 1.69885 0.221657 -0.478661 0.84956
-2.09314 4.17497 1.49381 0.297995 -0.594382 0.746933
-2.11398 3.8674 1.20993 0.381915 -0.69869 0.604958
-2.14468 3.56875 0.791849 0.473005 -0.787081 0.395942
-2.14468 -3.56875 0.791849 0.473005 0.787081 0.395942
-2.11398 -3.8674 1.20993 0.381915 0.69869 0.604958
-2.09314 -4.17497 1.49381 0.297995 0.594382 0.746933
-2.07808 -4.48755 1.69885 0.221657 0.478661 0.84956
-2.06731 -4.80445 1.84548 0.152169 0.353641 0.922921
-2.06019 -5.12615 1.94255 0.0886447 0.220565 0.971336
-2.05654 -5.45398 1.99219 0.0302312 0.0801736 0.996322
-2.05636 -5.78956 1.99463 -0.0240752 -0.0677823 0.99741
-2.06012 -6.13593 1.94346 -0.075202 -0.223984 0.971687
-2.06883 -6.49818 1.82479 -0.124304 -0.390437 0.912199
-2.26257 6.89961 1.55219 -0.196487 0.59918 0.776129
-2.24322 6.50494 1.79547 -0.143587 0.416378 0.897782
-2.23273 6.13945 1.92736 -0.0910529 0.250373 0.963858
-2.22775 5.79053 1.98994 -0.0366905 0.0953686 0.994766
-2.22718 5.45303 1.99708 0.0207288 -0.0507524 0.998496
-2.23037 5.1235 1.95707 0.0822418 -0.188922 0.978542
-2.23716 4.79999 1.87161 0.148795 -0.319251 0.935916
-2.24767 4.48109 1.73955 0.221224 -0.441047 0.869792
-2.26243 4.16616 1.55397 0.300434 -0.553236 0.776962
-2.28261 3.85527 1.30024 0.387113 -0.653825 0.650121
-2.31106 3.55035 0.942431 0.481167 -0.739188 0.471253
-2.35968 3.26408 0.331223 0.577773 -0.799218 0.165615
-2.35968 -3.26408 0.331223 0.577773 0.799218 0.165615
-2.31106 -3.55035 0.942431 0.481167 0.739188 0.471253
-2.28261 -3.85527 1.30024 0.387113 0.653825 0.650121
-2.26243 -4.16616 1.55397 0.300434 0.553236 0.776962
-2.24767 -4.48109 1.73955 0.221224 0.441047 0.869792
-2.23716 -4.79999 1.87161 0.148795 0.319251 0.935916
-2.23037 -5.1235 1.95707 0.0822418 0.188922 0.978542
-2.22718 -5.45303 1.99708 0.0207288 0.0507524 0.998496
-2.22775 -5.79053 1.98994 -0.0366905 -0.0953686 0.994766
-2.23273 -6.13945 1.92736 -0.0910529 -0.250373 0.963858
-2.24322 -6.50494 1.79547 -0.143587 -0.416378 0.897782
-2.44145 6.91447 1.49093 -0.221897 0.628437 0.745539
-2.41828 6.51278 1.76146 -0.164865 0.444007 0.880725
-2.40569 6.14359 1.90845 -0.108986 0.278326 0.954283
-2.39944 5.79228 1.98147 -0.0515786 0.124511 0.990877
-2.39793 5.45263 1.99912 0.00876231 -0.0199246 0.999763
-2.40044 5.12119 1.9697 0.0730801 -0.155912 0.985064
-2.40669 4.79569 1.89681 0.142242 -0.28344 0.948382
-2.41675 4.47479 1.7793 0.217154 -0.402077 0.889482
-2.43106 4.15763 1.6122 0.298737 -0.510904 0.80606
-2.45037 3.84365 1.38669 0.387417 -0.607701 0.693259
-2.47685 3.53385 1.0775 0.483519 -0.68986 0.538797
-2.51648 3.23288 0.614781 0.584507 -0.750907 0.307392
-2.51648 -3.23288 0.614781 0.584507 0.750907 0.307392
-2.47685 -3.53385 1.0775 0.483519 0.68986 0.538797
-2.45037 -3.84365 1.38669 0.387417 0.607701 0.693259
-2.43106 -4.15763 1.6122 0.298737 0.510904 0.80606
-2.41675 -4.47479 1.7793 0.217154 0.402077 0.889482
-2.40669 -4.79569 1.89681 0.142242 0.28344 0.948382
-2.40044 -5.12119 1.9697 0.0730801 0.155912 0.985064
-2.39793 -5.45263 1.99912 0.00876231 0.0199246 0.999763
-2.39944 -5.79228 1.98147 -0.0515786 -0.124511 0.990877
-2.40569 -6.14359 1.90845 -0.108986 -0.278326 0.954283
-2.41828 -6.51278 1.76146 -0.164865 -0.444007 0.880725
-2.62219 6.93251 1.41653 -0.249748 0.660281 0.708276
-2.59426 6.52214 1.72089 -0.188337 0.47349 0.860428
-2.57922 6.14875 1.88483 -0.129163 0.30792 0.942604
-2.57131 5.79442 1.97113 -0.0688182 0.155081 0.985502
-2.56864 5.45241 2.00024 -0.00581727 0.0123482 0.999907
-2.57037 5.11906 1.98139 0.0610016 -0.121489 0.990717
-2.57599 4.79172 1.9201 0.13252 -0.246506 0.960038
-2.58552 4.46894 1.81617 0.209625 -0.362325 0.908173
-2.59916 4.14953 1.66753 0.293 -0.467772 0.833871
-2.61753 3.83282 1.46732 0.383182 -0.56109 0.733724
-2.64205 3.51888 1.19995 0.480322 -0.639729 0.600031
-2.6763 3.20958 0.826602 0.583156 -0.699354 0.413321
-2.6763 -3.20958 0.826602 0.583156 0.699354 0.413321
-2.64205 -3.51888 1.19995 0.480322 0.639729 0.600031
-2.61753 -3.83282 1.46732 0.383182 0.56109 0.733724
-2.59916 -4.14953 1.66753 0.293 0.467772 0.833871
-2.58552 -4.46894 1.81617 0.209625 0.362325 0.908173
-2.57599 -4.79172 1.9201 0.13252 0.246506 0.960038
-2.57037 -5.11906 1.98139 0.0610016 0.121489 0.990717
-2.56864 -5.45241 2.00024 -0.00581727 -0.0123482 0.999907
-2.57131 -5.79442 1.97113 -0.0688182 -0.155081 0.985502
-2.57922 -6.14875 1.88483 -0.129163 -0.30792 0.942604
-2.59426 -6.52214 1.72089 -0.188337 -0.47349 0.860428
-2.80557 6.95511 1.32334 -0.2805 0.695369 0.661651
-2.77138 6.53323 1.6728 -0.214127 0.504782 0.836268
-2.75332 6.15474 1.85747 -0.151595 0.338875 0.928538
-2.74358 5.79733 1.95701 -0.0885011 0.187008 0.978364
-2.73961 5.45294 1.99756 -0.0230097 0.0457987 0.998686
-2.74033 5.11744 1.99023 0.0460598 -0.0860146 0.995229
-2.7451 4.78807 1.94147 0.119559 -0.208538 0.970679
-2.75384 4.46325 1.85207 0.198321 -0.321425 0.925935
-2.76668 4.14171 1.72093 0.283049 -0.423724 0.860431
-2.78398 3.82251 1.54406 0.374178 -0.513762 0.772036
-2.80671 3.50523 1.31171 0.471812 -0.589233 0.655895
-2.83696 3.19022 1.00252 0.575019 -0.646622 0.501231
-2.88184 2.88184 0.543791 0.680465 -0.680465 0.271909
-2.88184 -2.88184 0.543791 0.680465 0.680465 0.271909
-2.83696 -3.19022 1.00252 0.575019 0.646622 0.501231
-2.80671 -3.50523 1.31171 0.471812 0.589233 0.655895
-2.78398 -3.82251 1.54406 0.374178 0.513762 0.772036
-2.76668 -4.14171 1.72093 0.283049 0.423724 0.860431
-2.75384 -4.46325 1.85207 0.198321 0.321425 0.925935
-2.7451 -4.78807 1.94147 0.119559 0.208538 0.970679
-2.74033 -5.11744 1.99023 0.0460598 0.0860146 0.995229
-2.73961 -5.45294 1.99756 -0.0230097 -0.0457987 0.998686
-2.74358 -5.79733 1.95701 -0.0885011 -0.187008 0.978364
-2.75332 -6.15474 1.85747 -0.151595 -0.338875 0.928538
-2.77138 -6.53323 1.6728 -0.214127 -0.504782 0.836268
-2.99302 6.98478 1.20102 -0.314926 0.734941 0.600569
-2.95006 6.5467 1.61438 -0.242527 0.53821 0.807162
-2.92842 6.16237 1.82256 -0.176588 0.371599 0.911444
-2.91641 5.80123 1.93818 -0.110728 0.220256 0.969137
-2.91081 5.45401 1.99205 -0.0429021 0.080386 0.99584
-2.91028 5.11617 1.99717 0.0281435 -0.0494754 0.998379
-2.91414 4.78491 1.95998 0.103406 -0.169788 0.98004
-2.92202 4.45817 1.88413 0.183601 -0.280122 0.942243
-2.93384 4.13446 1.77045 0.269202 -0.379367 0.885218
-2.95 3.81299 1.61498 0.360853 -0.466417 0.807614
-2.97091 3.49276 1.41376 0.458283 -0.538782 0.706888
-2.99799 3.17365 1.1532 0.561067 -0.593941 0.576575
-3.03456 2.85665 0.801299 0.667133 -0.628019 0.400657
-3.09573 2.55091 0.212727 0.767371 -0.63232 0.106363
-3.09573 -2.55091 0.212727 0.767371 0.63232 0.106363
-3.03456 -2.85665 0.801299 0.667133 0.628019 0.400657
-2.99799 -3.17365 1.1532 0.561067 0.593941 0.576575
-2.97091 -3.49276 1.41376 0.458283 0.538782 0.706888
-2.95 -3.81299 1.61498 0.360853 0.466417 0.807614
-2.93384 -4.13446 1.77045 0.269202 0.379367 0.885218
-2.92202 -4.45817 1.88413 0.183601 0.280122 0.942243
-2.91414 -4.78491 1.95998 0.103406 0.169788 0.98004
-2.91028 -5.11617 1.99717 0.0281435 0.0494754 0.998379
-2.91081 -5.45401 1.99205 -0.0429021 -0.080386 0.99584
-2.91641 -5.80123 1.93818 -0.110728 -0.220256 0.969137
-2.92842 -6.16237 1.82256 -0.176588 -0.371599 0.911444
-2.95006 -6.5467 1.61438 -0.242527 -0.53821 0.807162
-3.18753 7.02699 1.02698 -0.354476 0.78145 0.513501
-3.13068 6.56299 1.54375 -0.273715 0.573802 0.771902
-3.10446 6.17124 1.78202 -0.204045 0.405613 0.890979
-3.08988 5.8061 1.91462 -0.135557 0.254722 0.957466
-3.08249 5.45601 1.98179 -0.0655428 0.116011 0.991083
-3.08056 5.11578 1.99934 0.00734552 -0.0121985 0.999899
-3.08317 4.78224 1.97561 0.0840244 -0.130329 0.987904
-3.08992 4.45339 1.91426 0.165199 -0.238095 0.957089
-3.10071 4.12777 1.81611 0.251493 -0.334795 0.90811
-3.11557 3.80411 1.68104 0.343162 -0.419001 0.840642
-3.13471 3.48136 1.50706 0.439968 -0.488621 0.753444
-3.1591 3.1591 1.28542 0.541735 -0.541735 0.642687
-3.19022 2.83696 1.00252 0.646622 -0.575019 0.501231
-3.23288 2.51648 0.614781 0.750907 -0.584507 0.307392
-3.23288 -2.51648 0.614781 0.750907 0.584507 0.307392
-3.19022 -2.83696 1.00252 0.646622 0.575019 0.501231
-3.1591 -3.1591 1.28542 0.541735 0.541735 0.642687
-3.13471 -3.48136 1.50706 0.439968 0.488621 0.753444
-3.11557 -3.80411 1.68104 0.343162 0.419001 0.840642
-3.10071 -4.12777 1.81611 0.251493 0.334795 0.90811
-3.08992 -4.45339 1.91426 0.165199 0.238095 0.957089
-3.08317 -4.78224 1.97561 0.0840244 0.130329 0.987904
-3.08056 -5.11578 1.99934 0.00734552 0.0121985 0.999899
-3.08249 -5.45601 1.98179 -0.0655428 -0.116011 0.991083
-3.08988 -5.8061 1.91462 -0.135557 -0.254722 0.957466
-3.10446 -6.17124 1.78202 -0.204045 -0.405613 0.890979
-3.13068 -6.56299 1.54375 -0.273715 -0.573802 0.771902
-3.31389 6.58297 1.45715 -0.308005 0.611845 0.728546
-3.28198 6.18216 1.73207 -0.234312 0.441367 0.866194
-3.26417 5.81214 1.88541 -0.163072 0.290363 0.942919
-3.25461 5.45874 1.96775 -0.0909724 0.152582 0.984095
-3.25102 5.1159 1.99866 -0.0164566 0.0258965 0.999529
-3.25222 4.78007 1.98837 0.0614069 -0.090255 0.994024
-3.25777 4.44922 1.94054 0.143375 -0.195811 0.970104
-3.26737 4.12165 1.85789 0.229971 -0.290099 0.928954
-3.28079 3.79589 1.74224 0.321243 -0.37168 0.871009
-3.29828 3.47103 1.59161 0.417243 -0.439096 0.795678
-3.32029 3.14626 1.40208 0.517581 -0.490454 0.701117
-3.34737 2.82069 1.16879 0.62051 -0.522878 0.584437
-3.38145 2.49417 0.875264 0.723602 -0.533731 0.437644
-3.42837 2.16823 0.47117 0.821371 -0.519465 0.235595
-3.42837 -2.16823 0.47117 0.821371 0.519465 0.235595
-3.38145 -2.49417 0.875264 0.723602 0.533731 0.437644
-3.34737 -2.82069 1.16879 0.62051 0.522878 0.584437
-3.32029 -3.14626 1.40208 0.517581 0.490454 0.701117
-3.29828 -3.47103 1.59161 0.417243 0.439096 0.795678
-3.28079 -3.79589 1.74224 0.321243 0.37168 0.871009
-3.26737 -4.12165 1.85789 0.229971 0.290099 0.928954
-3.25777 -4.44922 1.94054 0.143375 0.195811 0.970104
-3.25222 -4.78007 1.98837 0.0614069 0.090255 0.994024
-3.25102 -5.1159 1.99866 -0.0164566 -0.0258965 0.999529
-3.25461 -5.45874 1.96775 -0.0909724 -0.152582 0.984095
-3.26417 -5.81214 1.88541 -0.163072 -0.290363 0.942919
-3.28198 -6.18216 1.73207 -0.234312 -0.441367 0.866194
-3.31389 -6.58297 1.45715 -0.308005 -0.611845 0.728546
-3.50091 6.60836 1.34706 -0.346039 0.653187 0.673501
-3.46112 6.19514 1.67272 -0.267374 0.478579 0.836345
-3.43951 5.81954 1.8496 -0.193351 0.327143 0.924983
-3.42737 5.4624 1.94897 -0.119215 0.190001 0.974519
-3.42184 5.11672 1.99417 -0.043229 0.0646408 0.996972
-3.42158 4.77871 1.99635 0.0356886 -0.0498441 0.998119
-3.42577 4.44582 1.962 0.118249 -0.153459 0.981054
-3.43398 4.11624 1.89483 0.204849 -0.245549 0.947493
-3.44598 3.78858 1.79666 0.295609 -0.324999 0.898327
-3.46177 3.46177 1.66742 0.390451 -0.390451 0.833724
-3.48136 3.13471 1.50706 0.488621 -0.439968 0.753444
-3.50523 2.80671 1.31171 0.589233 -0.471812 0.655895
-3.53385 2.47685 1.0775 0.68986 -0.483519 0.538797
-3.56875 2.14468 0.791849 0.787081 -0.473005 0.395942
-3.61502 1.8109 0.413172 0.874803 -0.438223 0.206591
-3.61502 -1.8109 0.413172 0.874803 0.438223 0.206591
-3.56875 -2.14468 0.791849 0.787081 0.473005 0.395942
-3.53385 -2.47685 1.0775 0.68986 0.483519 0.538797
-3.50523 -2.80671 1.31171 0.589233 0.471812 0.655895
-3.48136 -3.13471 1.50706 0.488621 0.439968 0.753444
-3.46177 -3.46177 1.66742 0.390451 0.390451 0.833724
-3.44598 -3.78858 1.79666 0.295609 0.324999 0.898327
-3.43398 -4.11624 1.89483 0.204849 0.245549 0.947493
-3.42577 -4.44582 1.962 0.118249 0.153459 0.981054
-3.42158 -4.77871 1.99635 0.0356886 0.0498441 0.998119
-3.42184 -5.11672 1.99417 -0.043229 -0.0646408 0.996972
-3.42737 -5.4624 1.94897 -0.119215 -0.190001 0.974519
-3.43951 -5.81954 1.8496 -0.193351 -0.327143 0.924983
-3.46112 -6.19514 1.67272 -0.267374 -0.478579 0.836345
-3.50091 -6.60836 1.34706 -0.346039 -0.653187 0.673501
-3.69395 6.64242 1.19938 -0.388926 0.699362 0.599691
-3.64266 6.21121 1.59926 -0.303701 0.517849 0.799749
-3.61612 5.8285 1.80626 -0.226458 0.365007 0.903043
-3.60107 5.46734 1.92357 -0.150363 0.228289 0.961912
-3.59332 5.11858 1.98397 -0.0729638 0.103935 0.991904
-3.59133 4.77816 1.99954 0.00684544 -0.00910767 0.999935
-3.59388 4.44302 1.97962 0.0897353 -0.110938 0.989768
-3.60064 4.11154 1.92695 0.176189 -0.201188 0.963577
-3.61111 3.78205 1.84526 0.266213 -0.278815 0.92271
-3.62507 3.45334 1.73641 0.35948 -0.34245 0.868045
-3.64265 3.12456 1.5994 0.455727 -0.390909 0.799689
-3.66359 2.79454 1.43615 0.553403 -0.422129 0.718019
-3.68814 2.46253 1.24474 0.650945 -0.434629 0.622389
-3.71642 2.12762 1.02421 0.745399 -0.426734 0.512131
-3.74905 1.78908 0.769776 0.832979 -0.397504 0.384887
-3.78814 1.44651 0.465043 0.908601 -0.346951 0.232528
-3.78814 -1.44651 0.465043 0.908601 0.346951 0.232528
-3.74905 -1.78908 0.769776 0.832979 0.397504 0.384887
-3.71642 -2.12762 1.02421 0.745399 0.426734 0.512131
-3.68814 -2.46253 1.24474 0.650945 0.434629 0.622389
-3.66359 -2.79454 1.43615 0.553403 0.422129 0.718019
-3.64265 -3.12456 1.5994 0.455727 0.390909 0.799689
-3.62507 -3.45334 1.73641 0.35948 0.34245 0.868045
-3.61111 -3.78205 1.84526 0.266213 0.278815 0.92271
-3.60064 -4.11154 1.92695 0.176189 0.201188 0.963577
-3.59388 -4.44302 1.97962 0.0897353 0.110938 0.989768
-3.59133 -4.77816 1.99954 0.00684544 0.00910767 0.999935
-3.59332 -5.11858 1.98397 -0.0729638 -0.103935 0.991904
-3.60107 -5.46734 1.92357 -0.150363 -0.228289 0.961912
-3.61612 -5.8285 1.80626 -0.226458 -0.365007 0.903043
-3.64266 -6.21121 1.59926 -0.303701 -0.517849 0.799749
-3.69395 -6.64242 1.19938 -0.388926 -0.699362 0.599691
-3.89927 6.6947 0.972669 -0.439761 0.755031 0.486353
-3.82724 6.23097 1.5089 -0.34349 0.559222 0.75451
-3.79451 5.8396 1.75255 -0.262645 0.404201 0.87615
-3.77583 5.47358 1.89156 -0.184427 0.267352 0.945785
-3.76555 5.12149 1.96808 -0.105687 0.143744 0.983955
-3.76154 4.77843 1.99796 -0.0251191 0.0319097 0.999175
-3.76241 4.44114 1.99148 0.0580419 -0.0685125 0.99596
-3.76741 4.10754 1.95423 0.144063 -0.157069 0.977024
-3.77631 3.77631 1.88803 0.23319 -0.23319 0.944058
-3.78858 3.44598 1.79666 0.324999 -0.295609 0.898327
-3.80411 3.11557 1.68104 0.419001 -0.343162 0.840642
-3.82251 2.78398 1.54406 0.513762 -0.374178 0.772036
-3.84365 2.45037 1.38669 0.607701 -0.387417 0.693259
-3.8674 2.11398 1.20993 0.69869 -0.381915 0.604958
-3.89322 1.7739 1.01769 0.783372 -0.356935 0.508847
-3.92059 1.42942 0.813913 0.858191 -0.31289 0.40695
-3.94873 1.07995 0.604488 0.919459 -0.251465 0.30226
-3.97566 0.724966 0.404026 0.963495 -0.175695 0.202012
-3.99772 0.364522 0.239736 0.988689 -0.0901511 0.119865
-3.99772 -0.364522 0.239736 0.988689 0.0901511 0.119865
-3.97566 -0.724966 0.404026 0.963495 0.175695 0.202012
-3.94873 -1.07995 0.604488 0.919459 0.251465 0.30226
-3.92059 -1.42942 0.813913 0.858191 0.31289 0.40695
-3.89322 -1.7739 1.01769 0.783372 0.356935 0.508847
-3.8674 -2.11398 1.20993 0.69869 0.381915 0.604958
-3.84365 -2.45037 1.38669 0.607701 0.387417 0.693259
-3.82251 -2.78398 1.54406 0.513762 0.374178 0.772036
-3.80411 -3.11557 1.68104 0.419001 0.343162 0.840642
-3.78858 -3.44598 1.79666 0.324999 0.295609 0.898327
-3.77631 -3.77631 1.88803 0.23319 0.23319 0.944058
-3.76741 -4.10754 1.95423 0.144063 0.157069 0.977024
-3.76241 -4.44114 1.99148 0.0580419 0.0685125 0.99596
-3.76154 -4.77843 1.99796 -0.0251191 -0.0319097 0.999175
-3.76555 -5.12149 1.96808 -0.105687 -0.143744 0.983955
-3.77583 -5.47358 1.89156 -0.184427 -0.267352 0.945785
-3.79451 -5.8396 1.75255 -0.262645 -0.404201 0.87615
-3.82724 -6.23097 1.5089 -0.34349 -0.559222 0.75451
-3.89927 -6.6947 0.972669 -0.439761 -0.755031 0.486353
-4.01619 6.25608 1.39409 -0.38739 0.603443 0.696983
-3.97513 5.85324 1.6866 -0.302076 0.444797 0.843152
-3.95204 5.48147 1.85104 -0.221529 0.307261 0.925481
-3.93877 5.1256 1.94554 -0.141423 0.184037 0.972692
-3.93244 4.77968 1.99066 -0.0601604 0.0731219 0.995507
-3.93133 4.44002 1.99854 0.0231127 -0.0261034 0.999392
-3.93467 4.10453 1.97477 0.108769 -0.113465 0.98757
-3.94179 3.77147 1.92404 0.196823 -0.188318 0.962183
-3.95217 3.43945 1.85011 0.286832 -0.249621 0.924887
-3.96568 3.10756 1.75391 0.378427 -0.29654 0.876845
-3.9819 2.77476 1.63834 0.470479 -0.327849 0.819246
-4.00031 2.44005 1.50724 0.561092 -0.342247 0.753686
-4.02048 2.1027 1.36355 0.64822 -0.339017 0.681819
-4.04174 1.762 1.21216 0.729139 -0.317869 0.606066
-4.06325 1.41742 1.05892 0.800994 -0.279418 0.529466
-4.08366 1.06859 0.913587 0.860579 -0.225192 0.456829
-4.1009 0.715493 0.790755 0.904855 -0.157872 0.395366
-4.11294 0.358823 0.705017 0.932261 -0.0813329 0.352525
-4.11718 1.79565e-15 0.674817 0.941362 -4.10562e-16 0.337399
-4.11294 -0.358823 0.705017 0.932261 0.0813329 0.352525
-4.1009 -0.715493 0.790755 0.904855 0.157872 0.395366
-4.08366 -1.06859 0.913587 0.860579 0.225192 0.456829
-4.06325 -1.41742 1.05892 0.800994 0.279418 0.529466
-4.04174 -1.762 1.21216 0.729139 0.317869 0.606066
-4.02048 -2.1027 1.36355 0.64822 0.339017 0.681819
-4.00031 -2.44005 1.50724 0.561092 0.342247 0.753686
-3.9819 -2.77476 1.63834 0.470479 0.327849 0.819246
-3.96568 -3.10756 1.75391 0.378427 0.29654 0.876845
-3.95217 -3.43945 1.85011 0.286832 0.249621 0.924887
-3.94179 -3.77147 1.92404 0.196823 0.188318 0.962183
-3.93467 -4.10453 1.97477 0.108769 0.113465 0.98757
-3.93133 -4.44002 1.99854 0.0231127 0.0261034 0.999392
-3.93244 -4.77968 1.99066 -0.0601604 -0.0731219 0.995507
-3.93877 -5.1256 1.94554 -0.141423 -0.184037 0.972692
-3.95204 -5.48147 1.85104 -0.221529 -0.307261 0.925481
-3.97513 -5.85324 1.6866 -0.302076 -0.444797 0.843152
-4.01619 -6.25608 1.39409 -0.38739 -0.603443 0.696983
-4.21231 6.29002 1.23887 -0.436841 0.652311 0.619403
-4.15874 5.87018 1.60466 -0.345104 0.487124 0.802255
-4.13011 5.49138 1.80014 -0.26183 0.348128 0.90014
-4.11322 5.13111 1.91543 -0.180208 0.224803 0.957595
-4.10425 4.78206 1.97669 -0.0982653 0.114494 0.988552
-4.10086 4.43982 1.99985 -0.0149366 0.0161712 0.999758
-4.10223 4.10223 1.99049 0.0701472 -0.0701472 0.995067
-4.10754 3.76741 1.95423 0.157069 -0.144063 0.977024
-4.11624 3.43398 1.89483 0.245549 -0.204849 0.947493
-4.12777 3.10071 1.81611 0.334795 -0.251493 0.90811
-4.14171 2.76668 1.72093 0.423724 -0.283049 0.860431
-4.15763 2.43106 1.6122 0.510904 -0.298737 0.80606
-4.17497 2.09314 1.49381 0.594382 -0.297995 0.746933
-4.19287 1.75224 1.3716 0.671528 -0.280638 0.685779
-4.21047 1.40799 1.25143 0.739813 -0.247395 0.625678
-4.22663 1.06023 1.1411 0.796573 -0.199817 0.570565
-4.23978 0.70911 1.05131 0.839038 -0.140331 0.525663
-4.2485 0.355311 0.991792 0.865354 -0.0723713 0.495908
-4.2515 1.7775e-15 0.971303 0.874166 -3.65477e-16 0.485627
-4.2485 -0.355311 0.991792 0.865354 0.0723713 0.495908
-4.23978 -0.70911 1.05131 0.839038 0.140331 0.525663
-4.22663 -1.06023 1.1411 0.796573 0.199817 0.570565
-4.21047 -1.40799 1.25143 0.739813 0.247395 0.625678
-4.19287 -1.75224 1.3716 0.671528 0.280638 0.685779
-4.17497 -2.09314 1.49381 0.594382 0.297995 0.746933
-4.15763 -2.43106 1.6122 0.510904 0.298737 0.80606
-4.14171 -2.76668 1.72093 0.423724 0.283049 0.860431
-4.12777 -3.10071 1.81611 0.334795 0.251493 0.90811
-4.11624 -3.43398 1.89483 0.245549 0.204849 0.947493
-4.10754 -3.76741 1.95423 0.157069 0.144063 0.977024
-4.10223 -4.10223 1.99049 0.0701472 0.0701472 0.995067
-4.10086 -4.43982 1.99985 -0.0149366 -0.0161712 0.999758
-4.10425 -4.78206 1.97669 -0.0982653 -0.114494 0.988552
-4.11322 -5.13111 1.91543 -0.180208 -0.224803 0.957595
-4.13011 -5.49138 1.80014 -0.26183 -0.348128 0.90014
-4.15874 -5.87018 1.60466 -0.345104 -0.487124 0.802255
-4.21231 -6.29002 1.23887 -0.436841 -0.652311 0.619403
-4.42292 6.34228 0.999924 -0.4954 0.710382 0.499936
-4.34649 5.89159 1.50109 -0.392259 0.5317 0.750619
-4.31051 5.50368 1.73699 -0.305482 0.390041 0.868648
-4.28933 5.13834 1.87585 -0.222163 0.266137 0.937984
-4.2771 4.78558 1.95606 -0.139403 0.155976 0.977874
-4.27138 4.44082 1.99352 -0.0560259 0.0582483 0.996729
-4.27062 4.10105 1.99853 0.0285206 -0.0273881 0.999218
-4.27395 3.7644 1.97671 0.114291 -0.100665 0.988334
-4.28065 3.42935 1.93277 0.200941 -0.160979 0.966286
-4.29029 3.09483 1.86955 0.287942 -0.207709 0.934851
-4.30214 2.75974 1.79185 0.373994 -0.239909 0.895864
-4.31591 2.4234 1.7016 0.45802 -0.257181 0.850926
-4.3307 2.085 1.60461 0.537764 -0.258905 0.802358
-4.34592 1.74409 1.50478 0.611277 -0.245315 0.752437
-4.36069 1.40033 1.40796 0.676136 -0.217124 0.704058
-4.37381 1.05359 1.32193 0.729583 -0.175746 0.660925
-4.38439 0.70418 1.25256 0.76976 -0.123632 0.626246
-4.39124 0.352667 1.20763 0.794608 -0.0638161 0.603759
-4.39363 1.76398e-15 1.19201 0.803028 -3.22405e-16 0.595941
-4.39124 -0.352667 1.20763 0.794608 0.0638161 0.603759
-4.38439 -0.70418 1.25256 0.76976 0.123632 0.626246
-4.37381 -1.05359 1.32193 0.729583 0.175746 0.660925
-4.36069 -1.40033 1.40796 0.676136 0.217124 0.704058
-4.34592 -1.74409 1.50478 0.611277 0.245315 0.752437
-4.3307 -2.085 1.60461 0.537764 0.258905 0.802358
-4.31591 -2.4234 1.7016 0.45802 0.257181 0.850926
-4.30214 -2.75974 1.79185 0.373994 0.239909 0.895864
-4.29029 -3.09483 1.86955 0.287942 0.207709 0.934851
-4.28065 -3.42935 1.93277 0.200941 0.160979 0.966286
-4.27395 -3.7644 1.97671 0.114291 0.100665 0.988334
-4.27062 -4.10105 1.99853 0.0285206 0.0273881 0.999218
-4.27138 -4.44082 1.99352 -0.0560259 -0.0582483 0.996729
-4.2771 -4.78558 1.95606 -0.139403 -0.155976 0.977874
-4.28933 -5.13834 1.87585 -0.222163 -0.266137 0.937984
-4.31051 -5.50368 1.73699 -0.305482 -0.390041 0.868648
-4.34649 -5.89159 1.50109 -0.392259 -0.5317 0.750619
-4.42292 -6.34228 0.999924 -0.4954 -0.710382 0.499936
-4.54024 5.91941 1.36651 -0.444347 0.579324 0.68333
-4.4939 5.51891 1.65878 -0.352701 0.433148 0.829448
-4.4674 5.14747 1.82587 -0.267347 0.308044 0.913036
-4.45154 4.79072 1.92594 -0.183674 0.197669 0.962907
-4.44303 4.44303 1.97956 -0.100181 0.100181 0.989913
-4.43982 4.10086 1.99985 -0.0161712 0.0149366 0.999758
-4.44114 3.76241 1.99148 0.0685125 -0.0580419 0.99596
-4.44582 3.42577 1.962 0.153459 -0.118249 0.981054
-4.45339 3.08992 1.91426 0.238095 -0.165199 0.957089
-4.46325 2.75384 1.85207 0.321425 -0.198321 0.925935
-4.47479 2.41675 1.7793 0.402077 -0.217154 0.889482
-4.48755 2.07808 1.69885 0.478661 -0.221657 0.84956
-4.50044 1.73719 1.6175 0.548604 -0.211763 0.80882
-4.51287 1.3939 1.53916 0.610041 -0.188425 0.769641
-4.52388 1.04816 1.46968 0.660698 -0.153081 0.734877
-4.53257 0.700204 1.41491 0.6985 -0.107906 0.707428
-4.53815 0.350559 1.3797 0.721871 -0.0557625 0.689778
-4.54016 1.75327e-15 1.367 0.729941 -2.8188e-16 0.68351
-4.53815 -0.350559 1.3797 0.721871 0.0557625 0.689778
-4.53257 -0.700204 1.41491 0.6985 0.107906 0.707428
-4.52388 -1.04816 1.46968 0.660698 0.153081 0.734877
-4.51287 -1.3939 1.53916 0.610041 0.188425 0.769641
-4.50044 -1.73719 1.6175 0.548604 0.211763 0.80882
-4.48755 -2.07808 1.69885 0.478661 0.221657 0.84956
-4.47479 -2.41675 1.7793 0.402077 0.217154 0.889482
-4.46325 -2.75384 1.85207 0.321425 0.198321 0.925935
-4.45339 -3.08992 1.91426 0.238095 0.165199 0.957089
-4.44582 -3.42577 1.962 0.153459 0.118249 0.981054
-4.44114 -3.76241 1.99148 0.0685125 0.0580419 0.99596
-4.43982 -4.10086 1.99985 -0.0161712 -0.0149366 0.999758
-4.44303 -4.44303 1.97956 -0.100181 -0.100181 0.989913
-4.45154 -4.79072 1.92594 -0.183674 -0.197669 0.962907
-4.4674 -5.14747 1.82587 -0.267347 -0.308044 0.913036
-4.4939 -5.51891 1.65878 -0.352701 -0.433148 0.829448
-4.54024 -5.91941 1.36651 -0.444347 -0.579324 0.68333
-4.74443 5.95851 1.17739 -0.503519 0.632366 0.588712
-4.68147 5.53817 1.55987 -0.404035 0.477972 0.779935
-4.64793 5.15884 1.76364 -0.315858 0.350578 0.881663
-4.62773 4.79748 1.88635 -0.23108 0.239556 0.942982
-4.61594 4.44646 1.95797 -0.147365 0.141954 0.978842
-4.61025 4.10193 1.99257 -0.0638343 0.056796 0.996343
-4.6091 3.76133 1.99952 0.0197055 -0.016081 0.999676
-4.61174 3.42315 1.98351 0.103033 -0.0764778 0.991734
-4.61737 3.08606 1.94929 0.185581 -0.124034 0.974769
-4.62522 2.749 1.90162 0.266278 -0.158262 0.950815
-4.6348 2.41126 1.8434 0.344015 -0.178974 0.921749
-4.64533 2.07216 1.77945 0.417036 -0.186029 0.889648
-4.65632 1.73136 1.71269 0.483864 -0.179916 0.85645
-4.66665 1.38848 1.64991 0.541922 -0.161239 0.824817
-4.67601 1.04363 1.59309 0.590014 -0.131684 0.796582
-4.68326 0.696919 1.54901 0.625685 -0.0931085 0.774499
-4.68793 0.348833 1.52062 0.647767 -0.0482009 0.760313
-4.68955 1.74446e-15 1.51083 0.655239 -2.43741e-16 0.755422
