# x y Mean_Curvature nx ny
-5.82227 3.68045 -1.79206 -0.375301 0.23724 -0.896028
3.2388 5.95502 1.84214 0.186048 0.342076 0.92107
5.38267 5.71008 -0.766769 0.633524 0.672059 -0.383385
-2.08697 -6.61791 -1.76577 -0.14123 -0.447849 -0.882885
4.78 5.68546 1.40045 0.459427 0.546455 0.700224
3.85183 5.65198 1.81519 0.236441 0.346941 0.907594
1.33843 7.13745 1.55168 0.116287 0.620121 0.77584
1.09639 4.25054 -1.1861 -0.201103 -0.779648 -0.593049
4.57461 -0.153591 1.40556 -0.711005 0.0238717 0.702782
5.34955 5.56191 1.02558 0.595133 0.618759 0.51279
7.50598 -0.678057 -1.28024 0.765158 -0.069121 -0.640121
-7.38939 2.30423 0.985532 -0.83071 0.25904 0.492766
2.1452 -3.38736 -0.194713 -0.532487 0.84082 -0.0973563
-2.37209 -6.8534 -1.5594 -0.204802 -0.59171 -0.779702
-5.38483 5.87463 0.349826 -0.665291 0.725805 0.174913
-4.02423 6.51665 1.11693 -0.435852 0.705797 0.558465
-3.49978 2.26974 -0.809957 0.767123 -0.497508 -0.404979
-6.97492 3.52334 0.841587 -0.809712 0.409022 0.420793
0.590811 7.97223 -0.153637 0.0736875 0.994318 -0.0768183
5.39719 3.5525 1.94605 0.192708 0.126843 0.973023
3.53756 -5.7655 -1.84821 0.199848 -0.325712 -0.924106
5.1151 6.12137 0.301233 0.633902 0.758606 0.150617
5.9189 -0.453115 -1.99898 -0.0317969 0.00243418 -0.999491
0.210893 4.41231 -1.22279 -0.0377796 -0.790425 -0.611393
0.138174 -6.23911 -1.98547 0.00266396 -0.120289 -0.992735
-7.07032 -3.52772 -0.619807 -0.850751 -0.42448 -0.309903
-6.15008 1.67852 -1.96453 -0.180894 0.0493708 -0.982263
2.17947 -5.19576 1.96629 -0.0707171 0.168586 0.983147
0.320717 -3.99199 0.139199 -0.0798879 0.994371 0.0695995
0.636829 -4.84152 1.65916 -0.0728207 0.553622 0.829578
-5.61593 -2.82527 1.97936 -0.127995 -0.0643918 0.989682
4.40495 0.469816 -1.23891 -0.780604 -0.0832564 -0.619456
-3.05446 2.60531 -0.241598 0.755257 -0.6442 -0.120799
-6.5824 2.49969 -1.70769 -0.486618 0.184795 -0.853846
4.92556 -0.399756 1.69709 -0.527388 0.0428025 0.848546
-4.34394 -6.69959 0.24748 -0.539856 -0.832613 0.12374
-2.3991 5.44953 1.99948 0.00921676 -0.0209358 0.999738
3.62466 3.55082 1.77277 -0.330707 -0.32397 0.886384
4.13317 -5.93825 -1.5731 0.352774 -0.506842 -0.786551
-4.03178 0.13534 0.367504 0.982419 -0.032978 0.183752
7.05513 -1.36074 -1.61102 0.581856 -0.112224 -0.805512
1.36202 4.16427 -1.17472 -0.251593 -0.769225 -0.587362
0.534864 5.5502 -1.95452 -0.0203402 -0.211067 -0.97726
-1.43183 -4.27149 -1.32862 0.237562 0.708702 -0.664309
1.26143 -3.81261 -0.251467 -0.311619 0.941852 -0.125733
-1.35733 7.83738 0.426249 -0.166726 0.962694 0.213124
-0.313349 -4.37818 1.18571 0.0574893 0.803254 0.592855
0.493509 4.0137 -0.416857 -0.119357 -0.970727 -0.208428
3.10946 -7.37035 0.0480089 0.388598 -0.921095 0.0240044
-1.24198 4.85701 1.73965 0.122223 -0.477977 0.869827
-6.55961 -2.48573 -1.72342 -0.474473 -0.179799 -0.861712
-0.820294 4.15315 0.937578 0.171157 -0.866569 0.468789
-5.5429 1.47414 -1.98244 0.127772 -0.033981 -0.991221
3.48461 2.31412 0.835821 -0.756804 -0.502592 0.417911
2.65046 -7.04364 -1.29302 0.268682 -0.714026 -0.646511
-5.40822 0.0586888 -1.91054 0.295713 -0.00320901 -0.955271
-0.41269 -6.23929 -1.98394 -0.0083465 -0.126187 -0.991971
-4.39639 6.62422 0.44275 -0.539259 0.812522 0.221375
-7.8041 1.23316 0.62167 -0.938816 0.148346 0.310835
4.88265 -0.340735 -1.66671 -0.551398 0.0384792 -0.833355
3.69396 -3.41811 -1.75056 -0.354964 0.328457 -0.875281
-4.64357 6.32581 -0.766704 -0.54654 0.744537 -0.383352
-4.16543 -6.59518 0.870824 -0.480722 -0.761133 0.435412
-3.89902 -6.95235 0.339131 -0.482065 -0.85957 0.169565
7.15934 -3.56819 -0.0544185 0.894669 -0.4459 -0.0272093
1.45258 -7.22777 1.45494 0.135192 -0.672692 0.727468
-5.52488 -4.15629 -1.77909 -0.365074 -0.27464 -0.889547
0.413675 4.57844 1.42543 -0.063121 -0.698607 0.712716
0.0534281 7.98168 0.26879 0.00663297 0.990906 0.134395
1.80291 -3.61553 0.398544 -0.437302 0.876959 0.199272
4.79766 5.01595 1.76481 0.32521 0.340006 0.882403
6.27548 -4.96122 -0.0340206 0.78435 -0.620086 -0.0170103
7.28046 -0.459838 1.52416 0.646195 -0.040814 0.76208
0.582523 4.18768 0.927364 -0.122071 -0.877552 0.463682
3.26 -2.31884 0.0479084 -0.814648 0.579461 0.0239542
-4.42267 5.30997 1.7807 -0.291372 0.349829 0.890349
5.73728 -2.47425 -1.98456 0.113894 -0.0491179 -0.992278
7.89341 -0.452481 0.604795 0.95162 -0.0545506 0.302398
-6.29603 -2.03482 -1.90255 -0.2934 -0.0948243 -0.951275
4.54888 4.3371 1.97957 0.10318 0.0983766 0.989786
3.29631 -2.41688 0.58482 -0.771206 0.565453 0.29241
-5.26705 2.64114 1.99709 0.048201 -0.0241702 0.998545
3.46591 4.18608 1.91844 -0.180261 -0.217717 0.959221
0.203884 -7.98525 -0.220062 0.0253692 -0.993604 -0.110031
-5.71089 -1.02186 -1.99013 0.0976547 0.0174736 -0.995067
0.112771 6.52664 -1.92915 0.00455749 0.263766 -0.964576
4.7341 1.93534 -1.79325 -0.409867 -0.167557 -0.896624
1.90809 4.54499 -1.68925 -0.207235 -0.493625 -0.844623
5.65641 -5.58418 0.451109 0.693297 -0.684445 0.225554
1.0365 4.7601 -1.6513 -0.120037 -0.551263 -0.825652
-4.42265 4.45992 -1.98016 -0.0989249 0.0997585 -0.990082
-3.47172 -6.79664 -1.15613 -0.371187 -0.726677 -0.578066
-6.60495 4.02219 0.997893 -0.740188 0.450749 0.498946
-5.9765 0.746024 -1.99987 -0.0113505 0.00141684 -0.999935
6.24359 -4.96165 0.315318 0.773106 -0.614371 0.157659
-0.752948 3.92979 0.0712107 0.188058 -0.981512 0.0356054
-5.14002 2.66372 1.98886 0.0935669 -0.0484893 0.994432
6.33394 -4.48829 0.944451 0.719214 -0.509642 0.472225
-5.03906 5.16553 1.58766 -0.42466 0.435318 0.793828
1.27909 6.60449 -1.86311 0.0691348 0.356971 -0.931553
5.39979 5.48171 1.06223 0.594603 0.603624 0.531116
7.50578 -2.76747 -0.0328138 0.938128 -0.345899 -0.0164069
-7.3601 -3.04098 0.379937 -0.90739 -0.374908 0.189969
-0.0641281 -7.91825 -0.565083 -0.00776853 -0.959224 -0.282542
-2.96928 7.09565 1.06657 -0.326555 0.780365 0.533285
-5.1614 6.06096 0.393731 -0.635659 0.746446 0.196865
3.81177 4.52183 1.99815 -0.0276826 -0.0328393 0.999077
2.83691 6.79824 1.46044 0.263115 0.630515 0.73022
-4.14063 -4.55241 -1.99408 -0.0517411 -0.0568867 -0.997039
-2.68062 -3.65733 1.361 0.43317 0.591 0.680502
-4.7607 -5.11246 1.74017 -0.335905 -0.360724 0.870084
-7.79945 -0.587126 -0.825869 -0.908191 -0.0683666 -0.412935
-2.08962 4.80828 1.85109 0.150919 -0.347267 0.925543
-7.83057 1.38606 0.434202 -0.961207 0.17014 0.217101
-1.76564 -4.29994 -1.4741 0.256713 0.625184 -0.737051
-4.23854 0.784743 1.07044 0.830596 -0.15378 0.535221
0.584038 5.32198 1.89277 -0.0352386 -0.321108 0.946387
-2.26752 6.9425 1.51693 -0.20234 0.619506 0.758466
-4.26861 -2.17088 -1.59163 0.539747 0.274499 -0.795816
-0.188926 -4.02801 0.358726 0.0460918 0.982703 0.179363
3.17538 -3.72544 -1.66709 -0.358368 0.420447 -0.833545
2.85703 2.9854 0.715122 -0.645695 -0.674706 0.357561
-4.26298 -0.6344 1.06942 0.835832 0.124385 0.534708
2.81903 4.1236 1.72921 -0.283562 -0.414787 0.864607
-3.2181 -4.10473 -1.83986 0.241908 0.308557 -0.919931
3.33846 -5.95385 -1.82148 0.20198 -0.360214 -0.910741
3.11343 5.14193 -1.99997 0.00286419 0.0047303 -0.999985
6.22491 -1.60763 -1.95342 0.207757 -0.0536549 -0.976708
-1.07259 7.73086 0.861567 -0.12402 0.893893 0.430784
5.12402 -5.22456 1.50438 0.461399 -0.470452 0.752188
-0.395813 5.99147 -2 -0.000149408 0.00226161 -0.999997
5.91631 5.15972 -0.759475 0.6972 0.608039 -0.379738
4.77721 6.02115 1.07569 0.523985 0.660427 0.537844
1.51723 -7.84876 0.153952 0.189232 -0.978911 0.0769758
-2.42101 4.41274 1.75082 0.232507 -0.423788 0.875411
-4.1423 -0.311655 -0.769618 0.920395 0.069248 -0.384809
-4.09724 -0.896332 0.859579 0.882069 0.192965 0.429789
-4.7162 -6.35562 0.579133 -0.570378 -0.768649 0.289566
-6.76214 0.961128 -1.8196 -0.41092 0.0584056 -0.909799
-1.11535 6.91093 1.73185 -0.0796921 0.493788 0.865923
2.25819 -3.98747 1.41093 -0.34926 0.616716 0.705464
0.905475 -3.97913 0.562927 -0.212913 0.935653 0.281464
4.55868 5.14384 1.79932 0.289571 0.326741 0.899661
-7.20379 -3.01376 -0.853373 -0.834329 -0.349048 -0.426687
-0.190826 -7.99655 0.0684748 -0.0238427 -0.999129 0.0342374
-4.25555 -4.36193 1.99779 -0.0328011 -0.0336212 0.998896
2.33029 -4.28345 1.65447 -0.2685 0.493546 0.827237
7.04107 -0.0884924 -1.70734 0.52077 -0.00654506 -0.853672
5.96149 5.15451 -0.679919 0.711395 0.615097 -0.33996
2.00085 3.8423 1.10361 -0.385188 -0.739692 0.551803
7.73747 1.37085 -0.740238 0.914739 0.162064 -0.370119
-3.86628 -1.48434 -0.738719 0.867548 0.333068 -0.369359
-6.06086 -1.57409 1.98277 -0.126758 -0.0329209 0.991387
5.09741 5.74493 -1.08463 0.557621 0.628455 -0.542313
1.1977 7.83483 0.539541 0.14551 0.951867 0.26977
-4.67345 -2.36204 1.84851 0.340729 0.17221 0.924255
-0.505191 7.76607 0.907059 -0.0578539 0.889361 0.45353
1.94856 -4.89947 1.86308 -0.134383 0.337893 0.931542
4.31078 -1.53862 1.4055 -0.670034 0.239151 0.702752
-5.60413 -5.70321 0.129529 -0.699412 -0.711778 0.0647643
-1.32551 7.07541 -1.60112 -0.110344 0.589005 -0.800561
-4.0143 -2.20316 1.40754 0.622796 0.341808 0.70377
-1.29066 -3.83458 0.426295 0.31167 0.925975 0.213148
0.0249134 -7.75507 0.958954 0.00281916 -0.87755 0.479477
-4.25124 2.68625 -1.74837 0.410508 -0.25939 -0.874186
-0.216718 -7.64132 -1.13841 -0.0233092 -0.821865 -0.569205
7.74616 1.89258 -0.321374 0.958802 0.23426 -0.160687
4.95418 2.50395 1.94895 -0.200358 -0.101265 0.974475
-2.95508 5.55994 1.97791 -0.069569 0.130893 0.988953
-6.17807 1.75447 -1.95489 -0.203147 0.0576903 -0.977447
-6.80543 0.663551 1.81611 -0.416873 0.0406464 0.908056
-5.59582 5.69046 -0.275839 -0.694453 0.706197 -0.13792
7.58046 -1.77981 0.898927 0.86965 -0.204185 0.449463
3.63487 4.58817 -1.99463 -0.0454819 -0.0574102 -0.997314
-3.44708 2.04717 -0.191031 0.855873 -0.50829 -0.0955153
-0.957143 -4.01247 -0.696097 0.217525 0.911891 -0.348049
-7.43852 -2.54083 -0.733858 -0.88031 -0.300694 -0.366929
5.61919 4.06444 1.76796 0.37882 0.274006 0.883978
-6.82377 -0.179705 -1.8214 -0.412926 -0.0108744 -0.9107
0.329075 -5.72007 1.98163 -0.00776728 0.135013 0.990813
1.86656 4.9819 1.88088 -0.119273 -0.318343 0.940442
1.65478 -3.82958 -0.811 -0.362583 0.839109 -0.4055
-3.09508 7.05615 1.04527 -0.342465 0.780749 0.522636
5.45834 4.21695 -1.78729 0.355136 0.274367 -0.893645
-0.471235 4.28919 -1.07739 0.0920085 -0.837463 -0.538693
-5.73786 -4.72069 1.39804 -0.552226 -0.454331 0.69902
-4.74056 2.71426 1.92645 0.233177 -0.133508 0.963226
1.07304 6.88156 1.75195 0.0743159 0.476598 0.875975
-0.476756 -6.98599 -1.73075 -0.0341194 -0.499958 -0.865377
-7.27552 2.46267 1.08361 -0.796133 0.26948 0.541804
-7.88475 -1.23424 0.276686 -0.978469 -0.153165 0.138343
-1.02559 -7.87121 -0.495126 -0.125182 -0.960751 -0.247563
-1.22113 -5.65947 1.98891 0.022176 0.102777 0.994457
3.71587 3.86666 -1.89575 -0.220788 -0.229748 -0.947876
-5.67579 3.75009 -1.83182 -0.33489 0.221268 -0.915909
-4.10083 2.58464 1.63447 0.487546 -0.307287 0.817235
4.21066 -1.96311 -1.47179 -0.613679 0.286112 -0.735893
-4.77386 1.86314 -1.79822 0.407767 -0.159144 -0.89911
4.05362 -2.25107 -1.46337 -0.59592 0.330929 -0.731687
-5.73409 0.482994 1.98486 0.122369 -0.0103074 0.992431
4.07819 -4.49682 1.99875 0.0237371 -0.0261737 0.999376
2.89195 -7.38235 0.529676 0.351726 -0.897858 0.264838
4.01631 2.27769 1.44495 -0.601416 -0.341069 0.722475
-3.77883 6.76194 0.975111 -0.425921 0.762155 0.487555
1.13688 -6.2968 1.95987 0.0354118 -0.196134 0.979937
2.79689 5.13992 1.99449 -0.0354628 -0.0651709 0.997244
-0.999175 7.12827 1.60153 -0.0831464 0.593179 0.800765
-4.26259 -0.529994 1.04613 0.845781 0.105161 0.523063
-5.78093 -2.13736 1.99331 -0.0766284 -0.0283315 0.996657
-1.53272 -4.58877 -1.62779 0.184069 0.55108 -0.813897
4.37486 0.0192939 -1.16579 -0.812541 -0.00358344 -0.582893
-0.191747 -5.57077 -1.95412 0.00732591 0.212838 -0.97706
2.98879 6.15833 1.81259 0.184535 0.380229 0.906296
-0.95338 4.60801 1.52464 0.131126 -0.633775 0.762322
1.33305 5.19678 -1.89653 -0.0788858 -0.307531 -0.948263
-0.960329 4.80391 -1.66964 0.107917 -0.539839 -0.834822
-7.66344 -1.66793 0.777124 -0.900345 -0.195957 0.388562
-7.8226 1.58832 0.266086 -0.971291 0.197213 0.133043
-1.13641 -7.85371 -0.503818 -0.138587 -0.957776 -0.251909
3.02696 -2.95584 0.932657 -0.632906 0.618036 0.466328
-4.13123 0.502303 0.787711 0.912453 -0.110942 0.393855
5.33823 5.84597 -0.571635 0.646181 0.707642 -0.285817
-5.23053 -2.43765 1.98681 0.103933 0.0484373 0.993404
-0.899714 -7.37022 -1.40342 -0.0863326 -0.707214 -0.701709
4.66331 -4.69539 1.90224 0.217619 -0.219116 0.95112
-7.67037 -1.18654 0.946975 -0.870448 -0.13465 0.473488
-6.89773 -1.66139 -1.67362 -0.532274 -0.128204 -0.836808
1.72504 -3.94928 1.06889 -0.338318 0.774538 0.534445
5.91584 2.51176 -1.95389 0.19651 0.0834346 -0.976945
7.9952 -0.171476 0.108759 0.998291 -0.0214107 0.0543797
1.63092 -4.64181 -1.68333 -0.179005 0.509471 -0.841663
5.68983 -5.01222 1.2228 0.593789 -0.523073 0.611399
-1.84966 4.14909 -1.36978 0.296685 -0.665512 -0.684889
-4.41714 -4.79921 1.93053 -0.176934 -0.192239 0.965266
4.2025 -0.702525 0.987541 -0.857691 0.143379 0.493771
-6.98004 2.74394 1.32286 -0.698008 0.274395 0.661432
7.29212 -2.46649 -1.05685 0.80422 -0.27202 -0.528427
2.14985 3.38358 0.187349 -0.533925 -0.840327 0.0936746
5.53416 4.01306 1.81687 0.338414 0.245398 0.908436
-3.29171 7.278 -0.220783 -0.409574 0.905573 -0.110392
6.70896 -4.1036 -0.72373 0.795261 -0.486429 -0.361865
7.13338 -0.217373 -1.64558 0.568084 -0.017311 -0.822788
3.22681 -6.9436 1.12034 0.349106 -0.751223 0.560169
6.17695 -3.47438 -1.6788 0.473718 -0.266455 -0.8394
7.96985 -0.677549 0.0748097 0.995708 -0.0846492 0.0374048
-3.12015 -5.59151 1.95895 -0.0982238 -0.176024 0.979473
-3.27641 -5.01514 -1.99998 0.00258991 0.00396432 -0.999989
-6.49814 -0.142198 1.93657 -0.249787 -0.00546604 0.968285
-1.17292 3.92169 -0.603858 0.273171 -0.913354 -0.301929
-7.06751 2.89331 -1.14928 -0.757396 0.310064 -0.574641
-5.12407 3.99231 1.93759 -0.195529 0.152342 0.968793
1.84114 7.70288 0.560475 0.223157 0.933632 0.280237
-2.98857 2.71514 -0.386831 0.726178 -0.659739 -0.193415
-4.19378 -3.66824 -1.9536 0.161191 0.140992 -0.9768
2.00055 3.76854 -0.99771 -0.406374 -0.765509 -0.498855
-4.00607 -6.86245 0.460838 -0.490584 -0.840378 0.230419
5.17227 5.72026 1.03408 0.57408 0.634902 0.517041
2.58522 -7.52554 -0.411508 0.317939 -0.925516 -0.205754
-5.63579 -0.843086 1.97714 0.149092 0.0223034 0.988572
-2.26165 4.4488 1.72664 0.228698 -0.449864 0.863319
2.29314 -7.57447 0.580251 0.277295 -0.915934 0.290125
6.95235 2.38217 1.47642 0.638149 0.218657 0.73821
-0.841945 6.46732 -1.93071 -0.0336868 0.258762 -0.965354
-1.9522 -7.45069 1.05001 -0.21572 -0.823308 0.525003
-5.46536 -3.69476 -1.9088 -0.247325 -0.1672 -0.954398
5.22598 3.93208 -1.92571 0.215764 0.162343 -0.962855
-4.05176 -6.42837 1.20169 -0.426234 -0.676248 0.600844
-5.34394 -4.96245 -1.52607 -0.473635 -0.439823 -0.763037
0.845041 7.95524 0.00256748 0.10563 0.994405 0.00128374
-1.59559 -4.53534 -1.60584 0.197826 0.562304 -0.802919
-5.20993 5.10346 -1.52578 -0.461862 0.452423 -0.762888
1.34082 6.16226 1.97638 0.0325766 0.149718 0.988192
4.25583 5.41362 -1.79296 0.273839 0.348336 -0.896479
-4.73779 6.41116 -0.334662 -0.585939 0.792891 -0.167331
-4.59182 6.28901 0.898246 -0.526864 0.721598 0.449123
5.79414 1.11977 1.99757 -0.0484297 -0.00935946 0.998783
-0.395883 -4.01366 -0.362546 0.0965315 0.978684 -0.181273
-4.93376 -0.729152 1.72469 0.500884 0.0740247 0.862343
-1.22121 3.97124 -0.771449 0.271183 -0.88186 -0.385724
7.26679 2.21032 -1.20596 0.763231 0.23215 -0.60298
3.46158 2.6352 1.13099 -0.656234 -0.499571 0.565496
-7.642 0.597084 1.10762 -0.830113 0.0648583 0.55381
-6.31921 -3.20937 1.6785 -0.484802 -0.246219 0.839251
6.69822 4.34745 -0.241293 0.832682 0.540448 -0.120646
2.28767 3.29026 0.171924 -0.568749 -0.818007 0.085962
-5.64669 -0.0380593 1.96857 0.176586 0.0011902 0.984285
7.61415 1.93699 0.743502 0.899677 0.228873 0.371751
0.521635 -6.21916 1.98543 0.0100714 -0.120076 0.992714
6.44492 3.13711 -1.62359 0.525044 0.255569 -0.811796
-0.965784 5.88785 -1.99972 0.00270848 -0.0165121 -0.99986
7.94397 0.647711 0.343208 0.981908 0.0800598 0.171604
-7.5726 0.973835 -1.15191 -0.810803 0.104269 -0.575956
4.85895 -3.67543 -1.99786 0.0368723 -0.0278911 -0.998931
7.73706 -0.781518 -0.91885 0.88372 -0.0892642 -0.459425
2.68996 -4.33503 -1.78696 -0.23679 0.381602 -0.893482
2.10597 3.40372 0.100874 -0.525487 -0.849305 0.0504368
4.31273 -5.29583 -1.81976 0.261978 -0.321697 -0.909878
-6.03872 -2.36426 -1.94029 -0.225834 -0.0884177 -0.970145
5.28652 2.2362 1.98303 -0.11972 -0.0506414 0.991515
4.95595 2.36984 -1.93478 -0.228511 -0.10927 -0.96739
6.75723 1.62881 1.75955 0.462149 0.111399 0.879777
3.85021 -1.09146 0.0877657 -0.961163 0.272472 0.0438828
-6.18129 3.77644 1.56635 -0.530612 0.324176 0.783173
-6.21502 -0.800557 1.98218 -0.132095 -0.0170151 0.991091
-3.95958 1.01791 0.587808 0.925734 -0.237983 0.293904
-6.0083 -5.20902 0.435762 -0.737423 -0.639324 0.217881
2.20926 -3.83269 -1.23115 -0.393566 0.682771 -0.615573
3.26257 -7.02555 -0.97518 0.367727 -0.791854 -0.48759
7.39319 -2.90317 0.475 0.904175 -0.355052 0.2375
6.93329 3.10328 -1.20518 0.728416 0.326033 -0.602588
-4.03058 -2.58697 -1.59196 0.509419 0.326963 -0.795982
7.60097 -1.25374 1.04761 0.840481 -0.138633 0.523806
3.94466 -1.25896 0.73686 -0.885643 0.282658 0.36843
7.35956 -0.694639 1.43582 0.693057 -0.0654148 0.717909
-2.7528 -3.21728 0.939195 0.573986 0.670834 0.469598
7.46474 -0.609918 -1.33456 0.742332 -0.0606534 -0.667281
-6.64246 0.160291 1.89335 -0.322102 0.00777276 0.946673
-1.56276 4.74083 1.72727 0.157823 -0.478778 0.863634
0.653711 7.78531 0.84505 0.0758369 0.903173 0.422525
-2.12655 -5.81062 1.99119 -0.0322257 -0.088054 0.995594
7.22017 -3.4036 0.266352 0.896478 -0.422601 0.133176
-0.244739 -4.98116 -1.72458 0.0248516 0.505804 -0.86229
-6.17889 -4.90416 -0.658286 -0.739628 -0.58704 -0.329143
-5.89303 -1.73094 -1.99495 -0.0681117 -0.0200062 -0.997477
6.32216 0.226936 -1.97321 0.163011 0.00585134 -0.986607
5.41951 4.72429 1.60777 0.44835 0.390835 0.803885
-3.86531 -2.67521 1.52054 0.534153 0.369691 0.760269
7.56064 -2.3344 0.584053 0.913843 -0.282156 0.292026
-3.30167 5.05272 -1.99968 -0.00979368 0.0149878 -0.99984
-2.29264 -4.14201 1.54845 0.306502 0.553744 0.774225
-1.96595 -3.82095 1.0488 0.389559 0.757133 0.524398
-7.04387 -3.58248 0.616704 -0.847908 -0.431243 0.308352
-6.40934 -2.18278 -1.84548 -0.36484 -0.124251 -0.922742
-7.70107 -0.0409886 -1.05165 -0.850579 -0.00452717 -0.525827
5.86459 1.35789 1.9999 0.00961632 0.00222656 0.999951
-2.75097 -3.21703 -0.936595 0.574239 0.671526 -0.468297
-4.94911 -3.42489 -1.99991 -0.00764688 -0.0052918 -0.999957
3.2906 3.28128 1.47291 -0.479028 -0.477671 0.736453
1.34008 -7.87293 -0.23484 0.16664 -0.979001 -0.11742
-2.9179 -3.27245 1.17894 0.537599 0.602922 0.589468
-6.76404 -4.21029 0.359844 -0.835114 -0.519819 0.179922
1.34843 -7.50599 -1.16432 0.143765 -0.800262 -0.582162
4.85221 -6.32574 -0.331206 0.600224 -0.7825 -0.165603
3.08586 3.23145 1.28592 -0.528952 -0.553907 0.642959
-0.506969 6.30757 -1.97294 -0.0131354 0.163427 -0.986468
-4.17396 2.90352 1.77817 0.375766 -0.261393 0.889086
3.96603 1.58769 1.00702 -0.802105 -0.321099 0.503511
-1.3575 7.46925 -1.21111 -0.142302 0.782976 -0.605556
2.72384 7.47451 -0.420222 0.334748 0.918584 -0.210111
-3.44829 -6.25526 1.64137 -0.275842 -0.500383 0.820687
-3.82371 -6.91061 0.630778 -0.459431 -0.830333 0.315389
-6.57675 2.41442 1.72861 -0.472154 0.173334 0.864306
-5.89534 5.35589 -0.372734 -0.727192 0.660651 -0.186367
3.24025 3.08027 1.28891 -0.55419 -0.526828 0.644457
5.6132 5.53131 0.680766 0.669751 0.659979 0.340383
-3.36719 2.16765 -0.135228 0.83891 -0.540054 -0.0676138
-4.8363 4.64547 -1.87125 -0.254575 0.24453 -0.935626
1.67185 -7.13019 1.49939 0.151075 -0.64431 0.749694
7.00498 0.308321 1.72521 0.505392 0.0222446 0.862603
-2.58397 3.83567 1.45223 0.384156 -0.570246 0.726115
3.01108 2.66053 -0.268414 -0.742602 -0.656148 -0.134207
-4.11792 4.64632 1.9891 -0.0691494 0.0780225 0.994551
-3.96858 -6.29654 -1.38499 -0.384669 -0.610315 -0.692493
-6.99451 2.89838 -1.23741 -0.725779 0.300748 -0.618705
-4.29747 5.71945 1.63346 -0.346621 0.461314 0.816728
-3.771 -3.09523 1.65605 0.433397 0.355731 0.828024
-1.37948 4.66214 -1.64464 0.161449 -0.545641 -0.82232
-4.81858 -1.41554 -1.74468 0.469079 0.1378 -0.872339
-6.45906 -0.0668723 1.94652 -0.229689 -0.00237803 0.973261
-1.97667 -6.93506 -1.59149 -0.166008 -0.582433 -0.795747
-2.34298 7.64868 0.0450067 -0.292817 0.955904 0.0225034
-7.89688 -0.747008 0.516579 -0.961774 -0.0909793 0.25829
7.03939 -3.71508 0.400088 0.866517 -0.457309 0.200044
0.651773 4.86173 1.67376 -0.0727332 -0.542534 0.836879
-1.72931 -4.14501 -1.31292 0.290456 0.696199 -0.656461
4.29149 -6.38182 -1.06867 0.47168 -0.70143 -0.534335
7.498 -0.732607 1.28364 0.76322 -0.0745719 0.641821
-0.767128 -7.84303 0.681081 -0.0915272 -0.935764 0.340541
4.49686 0.906104 1.41566 -0.692463 -0.139529 0.707832
-4.34921 6.22021 1.21334 -0.455529 0.651495 0.606669
4.63592 2.57837 1.87524 -0.303827 -0.16898 0.937622
-2.71513 7.19542 -1.06852 -0.298435 0.790887 -0.53426
-2.84502 -2.82256 -0.174401 0.707199 0.701616 -0.0872003
2.70773 -3.57581 1.30606 -0.45719 0.603763 0.653029
-1.25517 7.02579 -1.64535 -0.0999827 0.559653 -0.822674
-6.65936 1.23984 1.84425 -0.380359 0.0708153 0.922124
7.07604 0.620985 1.66819 0.549507 0.0482241 0.834096
-1.30444 5.86507 1.99998 -0.000909305 0.00408846 0.999991
3.74124 2.4904 -1.31642 -0.626687 -0.417162 -0.658209
-4.56632 5.3145 1.72811 -0.328065 0.381818 0.864053
-7.5318 -2.5627 0.417938 -0.925799 -0.315004 0.208969
-7.64204 -1.56868 0.868918 -0.882295 -0.181109 0.434459
-0.819404 -7.79039 -0.799222 -0.0958891 -0.911656 -0.399611
-3.47332 4.69856 1.99383 0.0466695 -0.0631326 0.996913
5.32869 -1.22601 -1.92792 -0.259271 0.0596521 -0.963961
4.2789 -4.05297 1.99717 -0.0385925 0.0365548 0.998586
-2.45798 5.37765 -1.9981 0.0181325 -0.039671 -0.999048
5.38612 -2.22048 1.99241 -0.0804901 0.0331828 0.996203
-4.43524 6.63423 0.280383 -0.550289 0.823121 0.140191
-3.92155 6.57678 1.11969 -0.424357 0.711684 0.559846
-1.89277 6.02041 1.97568 -0.0466282 0.148312 0.987841
-5.57379 1.4562 1.98565 0.115682 -0.0302228 0.992826
3.53221 -7.1592 -0.259051 0.438731 -0.889235 -0.129526
5.79106 -0.398283 -1.99045 -0.0974018 0.00669886 -0.995223
-0.230463 4.44863 1.26954 0.0399766 -0.771668 0.634768
0.366592 -7.94303 -0.437828 0.0449853 -0.974707 -0.218914
-3.30684 4.83208 1.99476 0.0408692 -0.0597197 0.997378
-1.55727 7.31217 -1.34943 -0.15374 0.721889 -0.674715
7.38083 2.58625 0.827397 0.859194 0.301062 0.413699
-5.06624 4.99259 -1.66179 -0.396326 0.390564 -0.830894
-4.31438 3.67426 1.97207 0.126787 -0.107976 0.986036
3.1158 7.19244 0.787737 0.365377 0.843426 0.393869
-0.932203 4.90076 1.72544 0.0944949 -0.496777 0.862719
-1.77814 4.28146 -1.46272 0.261577 -0.629833 -0.73136
7.79842 -1.50641 -0.475774 0.953663 -0.184218 -0.237887
0.256881 7.99581 -0.0165613 0.0321093 0.99945 -0.00828064
4.60187 -0.853661 -1.50286 -0.648743 0.120344 -0.751432
6.75483 -3.76397 -0.998811 0.756805 -0.421711 -0.499406
-3.98902 -0.418874 -0.209019 0.989086 0.103861 -0.10451
-4.55372 -3.42557 -1.97712 0.120541 0.0906778 -0.988558
-5.37057 5.85633 -0.461422 -0.657646 0.717129 -0.230711
-3.97263 -5.52714 1.8301 -0.235407 -0.327523 0.915048
6.34357 3.57569 1.53514 0.558368 0.314736 0.767572
2.72748 4.20437 -1.73868 -0.268969 -0.414612 -0.869341
1.76211 -7.30887 -1.30185 0.177925 -0.737996 -0.650926
3.86096 1.86869 1.03628 -0.769864 -0.372611 0.518142
3.54573 -2.9143 -1.41811 -0.544759 0.447747 -0.709056
-4.20117 5.86994 1.58599 -0.354573 0.495414 0.792996
-5.68842 -4.95524 -1.2712 -0.582123 -0.507093 -0.635602
3.20258 3.151 -1.31467 -0.537183 -0.528531 -0.657335
-7.87902 1.28543 0.258801 -0.978654 0.159663 0.1294
5.4703 -2.00515 -1.99244 -0.0815835 0.0299046 -0.996218
3.07621 -4.93539 -1.99148 -0.0487716 0.078248 -0.99574
1.99009 6.58601 -1.79594 0.127288 0.421247 -0.897969
-3.93431 -4.17271 1.98237 0.0908936 0.0964013 0.991184
-4.24001 -0.759744 -1.06563 0.832965 0.149255 -0.532815
5.31413 5.24404 1.36054 0.52171 0.514828 0.680272
-0.632778 -5.91536 -1.99935 0.00270674 0.0253032 -0.999676
-0.730321 -7.80456 -0.786996 -0.0856529 -0.915327 -0.393498
-5.30959 -1.13302 1.9168 0.279148 0.0595677 0.958399
7.85222 1.44517 0.251694 0.975663 0.179567 0.125847
-3.89858 1.05249 0.388776 0.947021 -0.255664 0.194388
-4.68023 4.76271 1.88178 -0.237402 0.241586 0.940891
6.26301 2.85494 -1.79451 0.401739 0.183129 -0.897257
-0.8005 -7.83379 -0.697083 -0.0952817 -0.932438 -0.348541
-7.73998 0.301675 0.975702 -0.872265 0.0339976 0.487851
5.05357 -5.90587 0.925669 0.576325 -0.673524 0.462835
-2.34155 -4.52315 1.78267 0.208417 0.402598 0.891335
-0.147372 -7.87857 -0.682498 -0.0175795 -0.939808 -0.341249
-3.09364 6.43981 -1.64026 -0.247763 0.515751 -0.820131
1.47155 -4.79496 1.74101 -0.144393 0.470497 0.870507
3.58592 -1.78661 0.159229 -0.892219 0.444529 0.0796147
-4.1428 -6.63519 -0.82412 -0.482561 -0.772879 -0.41206
4.37736 -0.87409 -1.28064 -0.75324 0.15041 -0.640318
3.19018 -2.70404 -0.833583 -0.693421 0.587752 -0.416791
-3.42611 7.09838 -0.676948 -0.409021 0.84743 -0.338474
4.47553 -3.26374 1.94618 -0.186174 0.135765 0.973092
2.00043 -7.47866 0.983305 0.225013 -0.841218 0.491653
4.36342 -2.00459 -1.60139 -0.544375 0.25009 -0.800694
-4.80245 1.97043 1.82906 0.374243 -0.153551 0.91453
-1.26148 4.11806 1.06469 0.247944 -0.809403 0.532345
2.54144 -7.19362 -1.15982 0.271381 -0.76815 -0.579911
0.916477 4.05254 -0.771699 -0.203497 -0.899838 -0.385849
-6.7307 -3.98886 -0.820621 -0.784524 -0.464938 -0.410311
-6.45367 2.30464 -1.80906 -0.401575 0.143404 -0.904529
-5.62342 0.0421258 -1.96426 0.188204 -0.00140986 -0.982129
4.92187 1.9999 1.87818 -0.31839 -0.129371 0.93909
7.9426 -0.609794 0.367332 0.980104 -0.0752476 0.183666
-5.05924 -6.17337 0.270456 -0.628039 -0.766343 0.135228
-4.00337 0.809295 -0.574713 0.938833 -0.189788 -0.287357
0.43311 4.82037 -1.62908 -0.0519136 -0.57778 -0.81454
-7.88778 0.817737 0.524295 -0.959883 0.0995124 0.262147
-6.65745 4.43352 0.0746906 -0.831746 0.553899 0.0373453
1.63138 5.50968 -1.98382 -0.0360385 -0.121713 -0.991911
-1.36618 -7.87711 0.14539 -0.170434 -0.982684 0.0726951
7.12468 -3.03588 -0.97808 0.802449 -0.341929 -0.48904
1.74403 -3.76556 0.759506 -0.388783 0.839426 0.379753
2.39475 -5.03739 -1.9549 -0.0906679 0.190721 -0.977448
4.95844 -6.16199 0.595629 0.598469 -0.743734 0.297814
1.91854 7.45237 -1.06101 0.211336 0.820914 -0.530507
-0.870322 -5.46321 1.9445 0.0368057 0.231038 0.972248
-0.136755 4.07089 -0.536086 0.0323459 -0.962864 -0.268043
-0.265392 5.06292 -1.77056 0.0243446 -0.464425 -0.885278
-1.22542 6.93307 1.70801 -0.0905531 0.512323 0.854005
3.42301 3.90219 1.82897 -0.266821 -0.304173 0.914486
5.13051 -4.69842 -1.75627 0.352817 -0.323103 -0.878137
1.16561 -4.00346 0.806219 -0.255824 0.878667 0.40311
1.47086 -3.90516 0.813608 -0.32199 0.854888 0.406804
3.68852 -2.08265 -0.942261 -0.768084 0.433685 -0.47113
-3.62025 2.62268 -1.28856 0.619344 -0.448683 -0.644279
5.87626 -1.02691 1.9997 -0.0170835 0.00298542 0.99985
-4.20223 -5.68277 -1.69115 -0.317414 -0.429246 -0.845574
-3.64356 -6.65064 1.22195 -0.380365 -0.694287 0.610973
5.96674 -4.34076 1.44893 0.557415 -0.405516 0.724463
-3.82683 -5.02077 1.97537 -0.0948414 -0.124431 0.987685
6.55162 0.354949 -1.91964 0.280204 0.0151807 -0.95982
4.37275 -5.64298 1.64404 0.348808 -0.450133 0.822018
3.67568 2.61387 -1.33448 -0.60701 -0.431661 -0.667238
-1.2931 -4.07807 1.01751 0.260216 0.820644 0.508754
2.78447 5.12029 -1.99263 -0.0409826 -0.0753618 -0.996314
-5.02501 0.0287127 -1.7463 0.487445 -0.00278523 -0.873149
4.13279 2.50895 -1.62548 -0.498035 -0.302349 -0.81274
6.25282 -4.76569 0.730268 0.740418 -0.564321 0.365134
5.42182 5.73635 -0.644959 0.650205 0.687925 -0.32248
-3.70151 -2.14113 -1.0141 0.746086 0.431572 -0.507052
-1.60204 -7.77365 -0.497957 -0.195488 -0.948575 -0.248979
1.19538 5.22819 1.89588 -0.0709786 -0.310436 0.947941
-3.24637 -7.22484 0.557655 -0.393605 -0.875974 0.278827
-3.96784 2.75773 1.62355 0.479527 -0.333281 0.811775
-3.61227 -1.94037 -0.625812 0.836711 0.449448 -0.312906
-6.4795 4.58154 0.503259 -0.790234 0.558761 0.251629
-4.2012 -4.47655 1.99515 -0.0476238 -0.0507451 0.997576
-2.50676 4.3736 -1.75511 0.238427 -0.41599 -0.877556
2.62844 -4.32902 1.76772 -0.24276 0.399825 0.88386
-3.09906 -2.62783 -0.498823 0.738609 0.626299 -0.249411
1.80282 4.76278 -1.78229 -0.16062 -0.424334 -0.891146
5.52629 -1.63876 -1.98604 -0.113061 0.0335271 -0.993022
-7.0432 -3.73238 0.339175 -0.870801 -0.46146 0.169587
3.94985 -6.94776 0.178325 0.492254 -0.865873 0.0891625
-3.59624 3.0823 -1.55027 0.47971 -0.411154 -0.775133
-3.76268 2.76017 -1.49057 0.537607 -0.394369 -0.745286
3.99891 -6.67688 0.906427 0.458015 -0.764735 0.453213
3.8716 1.42856 0.700672 -0.878714 -0.324233 0.350336
2.99429 3.68835 -1.56185 -0.393685 -0.484938 -0.780927
-4.67239 3.65333 1.99881 0.0271343 -0.0212162 0.999407
-4.54744 2.38824 -1.80395 0.382271 -0.200763 -0.901977
-2.49345 -3.63368 -1.20917 0.450685 0.656778 -0.604587
-4.43259 3.58816 -1.97781 0.115472 -0.0934738 -0.988903
-3.87106 1.02706 0.141291 0.964144 -0.255805 0.0706455
-4.63955 2.33913 1.83122 0.359019 -0.181007 0.91561
3.91478 0.830315 0.0863647 -0.977326 -0.207288 0.0431824
2.38539 -4.43545 1.75245 -0.228251 0.424416 0.876226
-2.37428 7.61432 0.309505 -0.294096 0.943165 0.154752
0.793455 -4.52384 1.42129 -0.121543 0.692972 0.710645
-2.44608 -3.25142 -0.520014 0.580506 0.771628 -0.260007
-3.29517 -6.06898 -1.7831 -0.216115 -0.398037 -0.89155
-2.96901 4.68457 1.94783 0.121468 -0.191655 0.973917
4.43163 -3.07286 1.90558 -0.249511 0.173009 0.952792
4.47548 -4.43295 -1.97748 0.106317 -0.105307 -0.98874
6.5963 0.355451 1.90602 0.302499 0.0163006 0.95301
1.68585 -5.95713 -1.99085 0.0260159 -0.0919302 -0.995426
-6.31613 -1.71339 1.92448 -0.262705 -0.0712647 0.962241
-1.05338 -5.28685 -1.90495 0.059523 0.298741 -0.952476
4.76153 -1.2372 1.6831 -0.522822 0.135847 0.841548
-6.86898 2.75332 -1.42804 -0.649861 0.260486 -0.714022
5.45215 5.22173 1.26474 0.559466 0.535821 0.632371
2.10542 -7.71453 -0.115261 0.262849 -0.963114 -0.0576306
-5.25926 4.4108 -1.80373 -0.331013 0.277612 -0.901866
5.16265 3.82637 1.95409 0.17114 0.126843 0.977047
-7.54849 1.22683 -1.13385 -0.813101 0.13215 -0.566925
4.66964 0.702517 1.53857 -0.631795 -0.0950495 0.769286
2.13592 -5.45965 1.99527 -0.0250319 0.0639841 0.997637
1.01202 4.06386 -0.846515 -0.218936 -0.879159 -0.423257
-7.22563 3.39345 -0.261665 -0.897369 0.421441 -0.130832
2.27604 6.77849 -1.63602 0.183092 0.545283 -0.818012
-0.1554 -3.99699 -0.00696394 0.0388495 0.999239 -0.00348197
-7.6751 -0.871961 1.01301 -0.856726 -0.0973319 0.506504
-4.46335 -6.45709 0.761008 -0.52584 -0.760729 0.380504
-4.91741 -1.16224 -1.76153 0.460858 0.108925 -0.880764
3.37516 -3.96388 1.8357 -0.257325 0.30221 0.917852
5.8672 4.83939 1.19263 0.619276 0.510791 0.596313
-2.44918 -3.22521 -0.443289 0.589731 0.776589 -0.221645
3.73119 7.04346 -0.341075 0.461255 0.870724 -0.170538
2.44173 -7.59826 -0.275333 0.303032 -0.942985 -0.137667
1.09192 7.66625 -0.979685 0.122933 0.8631 -0.489842
-2.28393 3.83739 1.28286 0.392371 -0.659249 0.641432
0.823126 -4.1745 0.977005 -0.168801 0.856079 0.488502
-5.84162 -3.85793 -1.73171 -0.417469 -0.275705 -0.865856
-3.05265 6.37572 1.69044 -0.230786 0.482016 0.845221
2.87384 2.96208 -0.701578 -0.652086 -0.67211 -0.350789
-2.15784 7.23338 1.26591 -0.221316 0.741883 0.632953
-0.770557 -4.06816 -0.736376 0.173029 0.913509 -0.368188
7.16492 3.37607 -0.55837 0.868638 0.409297 -0.279185
5.85189 -5.43663 0.222516 0.728075 -0.676409 0.111258
-4.02138 5.90154 -1.64231 -0.321367 0.471619 -0.821157
-1.18396 -4.01981 -0.851971 0.255614 0.86787 -0.425986
-0.54751 4.93889 -1.71387 0.0567908 -0.51229 -0.856933
-7.89025 -0.267755 0.640131 -0.94685 -0.0321313 0.320066
-3.81785 1.44378 0.565873 0.897133 -0.339264 0.282937
-5.04936 -6.07438 0.627545 -0.606958 -0.730171 0.313772
-0.124904 4.11178 -0.664663 0.0286372 -0.942728 -0.332331
-3.48195 -2.07376 -0.456117 0.836525 0.498212 -0.228058
0.320296 -7.00742 1.72346 0.0231666 -0.506837 0.86173
4.67063 6.14595 -1.02178 0.520137 0.684434 -0.510888
4.32567 -5.26145 -1.82804 0.257628 -0.313361 -0.91402
-1.58048 -7.72328 -0.673077 -0.188789 -0.922551 -0.336539
2.85295 3.44652 -1.29295 -0.48649 -0.587707 -0.646473
2.01099 7.74108 -0.0889469 0.251187 0.966916 -0.0444734
2.72311 5.93527 1.92846 0.110535 0.240922 0.964229
2.09785 -3.87937 -1.21357 -0.378097 0.699183 -0.606783
3.62283 -2.57032 1.25407 -0.635333 0.450756 0.627033
6.79345 3.16397 -1.32952 0.677211 0.315403 -0.66476
7.51817 -0.797223 -1.25116 0.775812 -0.0822667 -0.625578
3.73887 5.4012 1.91734 0.161935 0.233933 0.958672
1.47084 4.19788 -1.26159 -0.256581 -0.732301 -0.630795
-2.01007 6.12123 -1.95036 -0.0690765 0.210358 -0.975181
3.53884 -6.87864 -0.993872 0.396992 -0.771655 -0.496936
-2.95406 -4.58081 -1.92309 0.148844 0.23081 -0.961547
2.3591 5.87187 1.97291 0.0611485 0.1522 0.986456
-2.75926 -4.20711 1.74971 0.265648 0.40504 0.874856
7.63386 -1.39747 -0.948613 0.865969 -0.158526 -0.474306
-4.25345 6.21861 -1.28315 -0.433049 0.633126 -0.641576
-7.79634 -1.61746 0.386213 -0.96072 -0.199315 0.193106
6.0621 4.12063 1.4937 0.549966 0.373832 0.746852
-1.19946 -4.47971 -1.46411 0.176199 0.658064 -0.732056
-5.76643 2.06763 1.99603 -0.0592615 0.0212489 0.998016
-7.25363 0.625608 1.53629 -0.63791 0.0550182 0.768143
-2.10205 -7.71727 -0.0791937 -0.262602 -0.964091 -0.0395969
1.41862 5.83917 -1.99998 0.00106589 0.00438729 -0.99999
6.62548 -4.15896 0.823359 0.77186 -0.484513 0.411679
-0.791007 6.17132 1.98766 -0.0140999 0.110006 0.993831
5.41338 1.97045 1.98565 -0.112366 -0.0409008 0.992825
-7.64042 -2.1087 0.538759 -0.928327 -0.256211 0.269379
6.76939 1.79745 -1.72976 0.485171 0.128826 -0.864878
-4.23888 -4.41045 -1.99656 -0.0406095 -0.0422532 -0.998281
0.221831 -7.89942 -0.616743 0.0267029 -0.950891 -0.308371
2.83766 3.98668 1.666 -0.320835 -0.450747 0.833002
5.98202 -0.040171 1.99992 -0.00892469 5.99319e-05 0.99996
-5.54164 -3.7817 -1.8701 -0.292828 -0.19983 -0.935051
5.3764 5.9225 -0.0677071 0.67176 0.739995 -0.0338535
6.4104 2.787 1.73777 0.453968 0.197368 0.868883
-4.2961 5.94207 -1.49151 -0.39034 0.539891 -0.745756
3.49564 -4.47295 1.97372 -0.0994893 0.127304 0.986861
5.96661 2.32031 1.9592 0.187286 0.0728322 0.979602
-3.69069 5.4158 -1.9218 -0.155927 0.228811 -0.960902
-3.30376 6.13354 -1.75084 -0.22922 0.425554 -0.875421
-0.126871 -7.82478 0.816342 -0.0147999 -0.912786 0.408171
-7.46812 -1.82284 -1.07368 -0.819622 -0.200056 -0.536841
4.35963 -2.13133 1.63822 -0.515351 0.251944 0.819108
-1.76012 -5.86166 -1.99638 -0.0172866 -0.057569 -0.998192
-3.06524 2.61708 0.347863 0.748922 -0.639425 0.173931
-4.85399 6.35911 0.0120834 -0.60674 0.794877 0.00604169
6.1207 -1.42777 1.97959 0.138784 -0.032374 0.989793
6.37799 2.96936 -1.71117 0.469296 0.218487 -0.855585
-0.865105 6.78619 -1.81453 -0.0531821 0.417179 -0.907267
1.85712 7.7725 -0.186547 0.23138 0.968382 -0.0932735
-3.29442 -4.8061 -1.99249 0.0489568 0.0714212 -0.996244
-2.64155 -6.28955 -1.82338 -0.159101 -0.37882 -0.911692
0.946156 -6.46341 -1.92787 0.0385494 -0.263339 -0.963933
-2.08672 -3.60496 0.796279 0.459554 0.793911 0.398139
5.28205 3.48759 1.97266 0.13751 0.0907938 0.98633
-3.46463 2.00501 0.108901 0.864232 -0.500137 0.0544503
-3.1373 3.71336 1.64415 0.367461 -0.434933 0.822074
-6.76803 -2.95103 -1.44436 -0.634056 -0.276464 -0.722178
-1.42102 -3.81529 0.529367 0.336584 0.903689 0.264683
-2.60158 -7.56516 0.00633026 -0.325196 -0.945641 0.00316513
7.94967 -0.0630639 -0.444766 0.974929 -0.00773401 -0.222383
5.36751 5.58944 0.969465 0.605828 0.630878 0.484732
0.867646 7.08612 -1.64395 0.0692169 0.565299 -0.821977
5.27602 -5.78252 0.811963 0.615968 -0.675102 0.405982
-4.34923 5.65051 1.64984 -0.344773 0.447929 0.824919
2.68785 -3.77026 1.45734 -0.397562 0.557661 0.728669
-3.49773 2.35183 0.901862 0.740692 -0.498033 0.450931
-0.776798 -6.95199 1.73478 -0.0552598 -0.494551 0.86739
2.64309 -3.02404 0.254847 -0.652725 0.746802 0.127424
-2.40448 -3.82847 -1.34622 0.39333 0.626271 -0.67311
4.12599 -3.87476 1.97092 -0.123858 0.116316 0.985459
7.08542 -3.71053 0.0849697 0.885077 -0.463502 0.0424848
-0.245885 6.0465 -1.99934 -0.00104629 0.0257292 -0.999668
-1.38686 -5.75131 1.99824 0.00982725 0.0407536 0.999121
3.24534 2.34462 0.121261 -0.809098 -0.584538 0.0606305
-1.17525 3.95201 -0.690701 0.267506 -0.899541 -0.345351
-4.33907 3.26272 -1.91672 0.228232 -0.171617 -0.958362
-7.62875 -0.377718 1.14746 -0.818044 -0.0405034 0.573728
1.26908 -7.87714 -0.290975 0.157366 -0.976765 -0.145488
7.89228 1.3052 0.0458951 0.98634 0.163117 0.0229475
5.63352 2.34004 1.99749 0.0462622 0.0192163 0.998744
4.93093 -0.999109 1.74965 -0.474786 0.0962016 0.874827
-0.417271 -7.48006 -1.33224 -0.041542 -0.744689 -0.666118
1.65093 -4.42574 -1.53977 -0.223046 0.597933 -0.769887
-2.40946 4.07717 -1.54987 0.321561 -0.54413 -0.774933
3.94271 -1.0128 -0.527133 -0.934308 0.240004 -0.263566
-2.98794 -7.36848 -0.43892 -0.366621 -0.904116 -0.21946
4.75308 0.305263 -1.57147 -0.617294 -0.0396452 -0.785733
0.931911 -4.34449 1.25568 -0.163245 0.761032 0.627838
1.85025 -3.92167 1.10991 -0.354961 0.75235 0.554953
-3.94149 -4.49515 -1.99988 0.00710791 0.00810634 -0.999942
-7.30119 1.93774 -1.25906 -0.750979 0.19931 -0.629528
6.47069 1.16245 1.91578 0.282613 0.0507709 0.957889
2.01664 7.73554 0.153741 0.25152 0.964795 0.0768704
-7.66748 -0.729907 1.05009 -0.847244 -0.0806535 0.525045
-7.24414 -3.30616 -0.383265 -0.892873 -0.407499 -0.191632
-0.578559 -4.81865 1.6386 0.0683514 0.56928 0.819298
-2.02753 -7.22661 1.31644 -0.203363 -0.724837 0.658221
5.71774 2.56549 1.98211 0.121766 0.0546353 0.991054
7.32195 3.10275 -0.434498 0.898751 0.380855 -0.217249
-6.17186 4.99809 -0.478818 -0.754533 0.611035 -0.239409
-2.65277 3.00769 0.203772 0.658029 -0.746068 0.101886
-3.9903 1.55338 -1.02394 0.800487 -0.311621 -0.51197
-1.71836 -6.056 -1.97811 -0.040272 -0.14193 -0.989057
0.310999 -7.8754 -0.678094 0.0371219 -0.940037 -0.339047
-5.52758 -5.71121 0.452709 -0.67741 -0.699914 0.226355
-1.62409 7.71863 -0.660918 -0.194336 0.923597 -0.330459
0.337524 -5.16687 -1.82322 -0.0267951 0.410183 -0.91161
5.23285 6.01651 0.322794 0.647654 0.744645 0.161397
4.74463 6.25061 0.766237 0.55848 0.735745 0.383119
-6.53582 4.49509 -0.515648 -0.796085 0.547517 -0.257824
-1.19601 -4.75733 -1.67385 0.133445 0.530797 -0.836927
-4.13541 2.22654 1.51704 0.573769 -0.308922 0.758522
-3.98018 1.80541 -1.15963 0.741983 -0.336564 -0.579815
1.9346 -6.9633 -1.57936 0.164233 -0.591132 -0.789678
-2.66903 4.16093 -1.69811 0.285243 -0.444685 -0.849053
-5.54098 -4.72863 -1.53308 -0.488495 -0.416879 -0.766541
4.13088 0.437274 0.769491 -0.917894 -0.0971638 0.384745
5.09274 -6.09956 0.461169 0.623639 -0.74693 0.230585
-1.12667 -6.21814 1.97433 -0.0284712 -0.157134 0.987167
-5.3989 3.47236 1.95559 -0.176263 0.113365 0.977793
-3.05479 -4.33749 -1.87545 0.200023 0.284013 -0.937725
-5.48487 5.67436 -0.648601 -0.657437 0.680151 -0.324301
-5.42908 -5.54519 -0.94917 -0.615782 -0.628952 -0.474585
1.04095 -7.51981 -1.21123 0.109115 -0.788241 -0.605616
7.41767 -2.71057 -0.63233 0.891074 -0.325617 -0.316165
0.623505 -7.91831 -0.474808 0.076255 -0.968413 -0.237404
6.7916 4.19853 -0.247873 0.844032 0.521776 -0.123936
2.78301 -7.48749 -0.21904 0.346305 -0.931707 -0.10952
6.92473 0.580286 -1.76051 0.472845 0.0396239 -0.880255
-1.65533 4.62569 -1.67879 0.183129 -0.511742 -0.839395
-4.55126 5.6201 -1.57562 -0.387621 0.478652 -0.787808
-1.37836 -4.27208 1.31022 0.231991 0.719034 0.65511
5.03539 5.37403 -1.46227 0.466471 0.497842 -0.731134
-0.872038 -6.30094 1.96715 -0.0247451 -0.178797 0.983575
6.35529 -4.17759 -1.19278 0.670757 -0.440915 -0.596388
-3.92021 -0.833736 0.177489 0.974265 0.207203 0.0887445
-0.175448 4.17689 -0.830483 0.0381781 -0.90891 -0.415242
4.18644 0.299979 0.865913 -0.89911 -0.0644257 0.432956
3.38511 7.10022 -0.72005 0.401495 0.842131 -0.360025
4.15627 1.08512 -1.04641 -0.824569 -0.215279 -0.523203
-3.98354 -1.37305 -0.899177 0.844479 0.291076 -0.449588
6.59479 3.76705 -1.20682 0.692428 0.395525 -0.603409
-1.64506 7.78402 0.417413 -0.202217 0.956844 0.208707
4.9855 -4.48514 1.87121 0.262465 -0.236123 0.935606
-2.00397 -3.9963 1.28878 0.342778 0.683566 0.644392
-1.87396 7.72345 0.455083 -0.229606 0.946312 0.227542
7.01485 0.799093 -1.69586 0.526702 0.0599989 -0.84793
2.5249 -3.60975 -1.20684 -0.457058 0.653438 -0.603421
1.58176 -5.58024 1.98998 -0.0272585 0.0961646 0.994992
7.936 -0.204965 -0.491582 0.969 -0.0250266 -0.245791
-5.33434 5.8646 -0.532835 -0.648553 0.713022 -0.266418
0.260084 -4.11571 -0.693046 -0.0591597 0.936174 -0.346523
0.60301 -6.469 1.93725 0.0230662 -0.247451 0.968626
-3.87935 1.2531 0.548616 0.915086 -0.295589 0.274308
0.64468 -4.2472 -1.04683 -0.127872 0.842428 -0.523415
-4.53648 1.8555 -1.67117 0.508472 -0.207974 -0.835585
6.48685 4.65935 -0.229536 0.806831 0.579527 -0.114768
-4.80961 -4.99192 1.76961 -0.323301 -0.335556 0.884805
-7.93104 0.390625 0.483599 -0.969151 0.0477333 0.2418
1.51821 6.84515 1.72536 0.10951 0.493748 0.862682
0.186184 -6.65479 -1.88887 0.00919256 -0.32857 -0.944435
-5.72858 5.05918 1.14074 -0.615664 0.543722 0.570372
4.14013 0.225 -0.750723 -0.925513 -0.0502981 -0.375361
-1.87171 3.58693 -0.426041 0.452 -0.866209 -0.21302
3.30071 -2.26692 0.129578 -0.822581 0.564946 0.0647889
3.55467 5.85713 -1.80973 0.220863 0.363923 -0.904864
1.41586 -5.14077 1.88521 -0.0886635 0.321923 0.942605
7.58744 1.51509 0.990982 0.851797 0.17009 0.495491
1.40085 4.8808 1.77472 -0.127199 -0.443182 0.887361
7.60717 2.09905 -0.649932 0.911657 0.251554 -0.324966
0.391722 4.39677 -1.21869 -0.0703636 -0.789777 -0.609345
-4.1906 -5.43818 1.80303 -0.264141 -0.342779 0.901516
-4.13181 -3.9173 -1.97639 0.111175 0.105404 -0.988195
-3.78785 6.81299 -0.881693 -0.436156 0.784489 -0.440846
3.69452 -2.04748 -0.919577 -0.776725 0.430456 -0.459789
-6.87745 -2.35877 -1.54445 -0.600986 -0.206121 -0.772224
4.01493 -1.09659 -0.788505 -0.88653 0.242137 -0.394253
3.99665 4.86302 1.97818 0.0935292 0.113804 0.989091
-0.512024 7.78808 -0.861608 -0.0592031 0.900501 -0.430804
0.454064 7.92455 0.495899 0.0554183 0.967187 0.247949
-1.84991 -3.58879 0.385608 0.449583 0.872182 0.192804
-3.10431 2.85497 -0.907091 0.655991 -0.603301 -0.453545
-4.84978 0.435586 -1.6497 0.563082 -0.0505735 -0.824852
4.60381 1.35152 -1.59857 -0.576622 -0.169276 -0.799283
3.0323 5.27102 -1.99836 0.0201953 0.0351053 -0.99918
3.99475 -6.83628 -0.56724 0.483806 -0.827944 -0.28362
0.0740479 -6.66515 1.88601 0.00369688 -0.332762 0.943004
0.900064 7.23551 -1.52728 0.0797003 0.640702 -0.763642
-2.70115 4.35528 -1.79839 0.230614 -0.371837 -0.899196
7.05721 -3.04118 1.07803 0.773531 -0.33334 0.539013
-1.53698 7.51427 1.10073 -0.167313 0.817987 0.550367
-6.12009 1.5979 -1.97338 -0.15735 0.0410825 -0.986688
2.04932 -3.7754 -1.04666 -0.406516 0.748912 -0.523331
-7.09072 -0.045019 1.67631 -0.545419 -0.00346287 0.838157
-3.58114 -7.09201 0.466278 -0.438327 -0.868053 0.233139
-2.97271 -6.81944 -1.38878 -0.287553 -0.659651 -0.694388
4.18327 -1.16701 1.11998 -0.798028 0.222627 0.55999
3.90699 -6.94931 0.331745 0.483282 -0.859608 0.165872
-4.95425 -5.96281 0.963902 -0.559943 -0.673934 0.481951
4.53537 3.9842 1.99966 0.0138383 0.0121565 0.99983
-4.97176 -2.30354 -1.93108 0.236143 0.109411 -0.965539
-7.44475 -2.89871 0.207899 -0.926807 -0.360865 0.103949
-0.541045 4.17693 0.895789 0.114853 -0.886679 0.447894
0.721306 -4.23087 1.04041 -0.143532 0.841894 0.520205
3.86847 6.98436 0.251408 0.480676 0.867841 0.125704
-2.03075 6.94352 1.57362 -0.173251 0.59238 0.78681
0.66119 -7.85825 0.665543 0.0790649 -0.939687 0.332772
4.37146 -0.277885 1.17325 -0.808229 0.0513775 0.586622
-5.61516 -5.69689 0.0620728 -0.701642 -0.711854 0.0310364
-7.61666 -0.640685 1.13961 -0.818887 -0.0688817 0.569807
3.13769 4.60208 1.95322 -0.121132 -0.177665 0.976608
-1.54633 -7.41839 1.22899 -0.160987 -0.772322 0.614493
-2.75776 3.3647 -1.13093 0.522826 -0.63789 -0.565464
3.68158 -1.68478 0.438954 -0.887137 0.405977 0.219477
-3.58538 -4.16751 -1.93586 0.163844 0.190446 -0.967929
4.70494 6.19688 -0.910741 0.538367 0.709083 -0.455371
6.78884 -1.14075 -1.79402 0.435896 -0.073245 -0.897012
-3.73594 -1.70507 -0.64435 0.861225 0.393059 -0.322175
2.26349 3.33532 0.349932 -0.552879 -0.814685 0.174966
-4.80169 -0.723685 1.64045 0.565651 0.0852518 0.820226
-1.47141 6.85586 -1.72508 -0.106178 0.494723 -0.86254
-4.67806 6.17567 0.972818 -0.527575 0.69647 0.486409
-0.539682 -4.22923 -0.992295 0.109903 0.861254 -0.496148
-3.66 -1.89475 0.686106 0.834164 0.431839 0.343053
-2.56364 -3.15147 0.496143 0.611322 0.751496 0.248071
1.31585 7.51196 -1.16406 0.140304 0.800972 -0.58203
3.98321 -6.60584 -1.03093 0.442486 -0.733828 -0.515463
-4.86248 2.62667 1.94316 0.208265 -0.112503 0.971581
7.96631 -0.375057 -0.314418 0.986473 -0.0464435 -0.157209
6.16665 -0.300177 -1.99242 0.0868735 -0.00422878 -0.99621
4.20667 0.803121 1.02503 -0.843443 -0.161027 0.512517
7.37109 0.955786 1.39539 0.710449 0.0921217 0.697693
1.74778 -4.15232 -1.32871 -0.289961 0.68888 -0.664354
-1.28749 -7.82577 -0.520914 -0.156734 -0.952679 -0.260457
2.15035 -4.09767 1.45485 -0.318856 0.607607 0.727423
0.41978 -7.81018 -0.82601 0.0488791 -0.909416 -0.413005
6.35706 4.83904 0.206897 0.79143 0.602442 0.103449
-5.79735 3.29285 -1.88541 -0.290095 0.164772 -0.942706
2.10034 -7.19902 -1.32383 0.20994 -0.719578 -0.661916
-7.08777 -0.799514 1.64832 -0.562791 -0.0634839 0.824157
-1.81651 5.35701 1.9703 0.0551352 -0.162597 0.985151
5.80184 -0.658064 -1.99351 -0.0799679 0.00907022 -0.996756
6.38218 4.17627 1.16292 0.680776 0.445476 0.581459
-7.13909 -0.91929 1.60147 -0.594114 -0.0765031 0.800734
-6.11502 1.47803 -1.9787 -0.14148 0.0341966 -0.98935
-2.46954 -3.34599 -0.780639 0.54673 0.740768 -0.390319
-4.44342 -5.03508 -1.86769 -0.236668 -0.268182 -0.933845
5.11808 1.04351 -1.84305 -0.380486 -0.077576 -0.921527
-5.5316 5.77752 -0.0734861 -0.6911 0.721824 -0.0367431
0.19746 -7.72702 -1.00433 0.0220916 -0.86449 -0.502164
4.00347 -2.67047 1.60923 -0.493986 0.329509 0.804613
-6.56851 3.68087 1.2886 -0.667162 0.373865 0.644298
-1.00451 -4.21059 1.09861 0.19391 0.81281 0.549307
0.149856 -7.48661 1.33623 0.0148905 -0.743908 0.668116
-7.4764 -2.11674 0.93067 -0.851659 -0.241124 0.465335
0.362564 4.93598 1.70176 -0.0384859 -0.523951 0.850878
0.81762 3.94558 0.341679 -0.19993 -0.964801 0.170839
2.76469 -2.89613 0.124566 -0.689162 0.721926 0.0622828
-4.20544 -1.71139 -1.36725 0.676003 0.275098 -0.683623
-2.31017 7.58599 -0.524681 -0.281119 0.923119 -0.26234
-0.379146 -3.98207 0.0178305 0.0947807 0.995458 0.00891523
-6.67691 -1.68375 -1.79308 -0.42952 -0.108314 -0.896538
7.80753 1.49048 0.450814 0.956983 0.18269 0.225407
-6.39502 3.2769 1.61062 -0.527619 0.270359 0.80531
-2.60694 5.35645 -1.99954 0.00937504 -0.0192628 -0.999771
-1.5138 -4.25437 -1.34044 0.248798 0.699219 -0.670218
2.07611 3.42208 0.1021 -0.518013 -0.853848 0.0510502
5.01575 -5.16195 1.6019 0.417243 -0.429405 0.800949
-0.299477 4.14599 -0.776272 0.066397 -0.919207 -0.388136
-2.21428 3.34333 0.200752 0.549388 -0.829517 0.100376
-1.60686 5.30742 -1.94763 0.0658737 -0.217579 -0.973817
-5.66135 -5.64218 0.169337 -0.705762 -0.703372 0.0846684
0.980292 4.16234 1.01418 -0.197583 -0.838939 0.507092
3.8257 -3.21043 -1.72874 -0.385199 0.323249 -0.864368
1.52478 -3.95184 0.942113 -0.317534 0.822969 0.471057
6.18101 -4.90727 0.647863 0.740955 -0.588264 0.323931
-3.81077 1.74699 0.855336 0.821705 -0.376698 0.427668
-0.816677 5.0068 1.77218 0.0746195 -0.45747 0.886089
-4.38425 -5.55037 -1.68776 -0.332569 -0.421026 -0.843881
-4.54815 2.55514 1.84025 0.341437 -0.191819 0.920123
0.741153 7.57013 1.19152 0.0782594 0.799342 0.595758
-1.79018 -3.59573 -0.258088 0.441956 0.887706 -0.129044
-5.47461 0.525596 1.93644 0.248963 -0.023902 0.968218
-5.90656 0.457116 1.99856 0.0377753 -0.00292348 0.999282
3.21577 -6.59491 -1.48728 0.29303 -0.600946 -0.743638
-2.14673 -6.32553 1.88089 -0.109248 -0.321908 0.940447
-5.49485 -4.64373 1.60428 -0.456083 -0.385438 0.802138
1.45172 7.7898 -0.546393 0.176238 0.945677 -0.273196
2.29297 -3.30057 0.274202 -0.56516 0.813509 0.137101
-6.05918 5.02536 0.704075 -0.720444 0.597521 0.352037
0.169308 -7.99694 -0.0710681 0.0211535 -0.999145 -0.0355341
2.8504 -7.29112 -0.810332 0.332882 -0.851487 -0.405166
-4.24008 4.10083 1.99743 0.0363945 -0.0351992 0.998717
