# x y Mean_Curvature nx ny
0.123416 -4.06085 0.496969 -0.0294248 0.968189 0.248485
-2.44331 4.00711 1.51408 0.340143 -0.557848 0.757039
-6.70984 -4.28083 -0.402326 -0.825805 -0.526858 -0.201163
7.52918 2.58683 0.392184 0.927377 0.318622 0.196092
-0.612598 4.65799 -1.51824 0.0848793 -0.645393 -0.75912
-6.68894 4.33022 0.355053 -0.826117 0.534803 0.177526
-0.450785 5.58249 -1.95973 0.0160709 -0.199021 -0.979863
4.52153 -5.0382 1.846 0.257017 -0.286386 0.922998
-4.57917 -3.29065 -1.96713 0.146621 0.105364 -0.983565
3.21934 -4.46643 1.93796 -0.144504 0.200482 0.968982
-7.79135 0.0512533 0.889085 -0.895738 0.00589238 0.444543
7.75481 1.38228 0.690439 0.923959 0.164694 0.345219
-5.33602 5.34027 -1.26481 -0.547534 0.54797 -0.632405
0.726934 -5.09661 1.80954 -0.0601384 0.421636 0.904769
-4.08455 0.460164 0.655261 0.938867 -0.105772 0.327631
-2.74867 -6.3406 -1.7806 -0.18112 -0.417805 -0.8903
2.97026 2.7001 -0.237053 -0.734741 -0.667912 -0.118526
-6.57787 -1.81004 -1.82311 -0.396445 -0.10909 -0.911554
4.18668 6.81577 -0.0651323 0.523127 0.851632 -0.0325661
-5.54866 -0.657454 -1.95699 0.204828 0.0242698 -0.978497
-4.25236 -5.92164 -1.52812 -0.376308 -0.524029 -0.764059
7.94185 -0.962137 -0.0177548 0.992702 -0.120264 -0.00887742
-0.812167 5.14573 1.83712 0.0616265 -0.390453 0.918558
-4.86517 6.25878 0.534302 -0.591417 0.760826 0.267151
-2.11861 -6.73137 -1.69793 -0.15865 -0.504073 -0.848964
1.89135 -6.63813 1.78489 0.123624 -0.433889 0.892445
-3.93105 -0.751527 -0.0945991 0.981112 0.187567 -0.0472995
-0.537531 4.33846 1.16121 0.100111 -0.808008 0.580604
-1.8282 -6.61986 1.80199 -0.115488 -0.418179 0.900993
0.953413 -3.88769 0.107435 -0.237837 0.969818 0.0537174
-5.92237 -4.39763 1.45089 -0.552595 -0.410327 0.725445
-6.96219 -2.30787 -1.48945 -0.633472 -0.209987 -0.744727
7.93545 -0.976273 0.137332 0.990174 -0.121818 0.0686661
-4.19717 2.21467 1.55774 0.5547 -0.292692 0.77887
-3.8248 -5.12852 1.96006 -0.118886 -0.159409 0.980028
-6.88047 -0.715383 1.7771 -0.456322 -0.0474451 0.888549
1.29537 -3.83322 0.427281 -0.312756 0.925495 0.213641
-2.46639 -6.2598 -1.86273 -0.133464 -0.338738 -0.931367
-1.16112 -6.64395 1.85621 -0.0640969 -0.366764 0.928104
-4.27744 -4.71931 -1.9656 -0.124016 -0.136827 -0.982801
7.38844 -1.27985 1.32461 0.738242 -0.127881 0.662303
-4.47707 -6.62942 -0.0406885 -0.559547 -0.828549 -0.0203443
-4.06157 1.08532 -0.880158 0.86752 -0.231816 -0.440079
6.18272 -3.61387 1.62822 0.501351 -0.293045 0.814108
2.50426 3.84352 1.41579 -0.385581 -0.591785 0.707897
4.11303 -1.06174 -0.964362 -0.848265 0.218971 -0.482181
-3.75228 4.85112 -1.99558 -0.0406697 0.0525797 -0.997788
7.69737 -0.91961 0.964431 0.869867 -0.103924 0.482216
2.81077 -2.96545 -0.57975 -0.658388 0.69462 -0.289875
-0.761391 -5.20658 1.85884 0.0533962 0.365137 0.929421
7.70209 1.96996 0.444313 0.944603 0.241601 0.222156
-3.70506 -1.51185 -0.0810515 0.925124 0.377496 -0.0405258
5.71936 -3.52038 -1.86746 0.304858 -0.187647 -0.933729
-0.484874 5.80352 -1.99222 0.00733743 -0.0878227 -0.996109
-0.647876 6.91664 -1.76163 -0.0441551 0.471395 -0.880816
0.915852 7.24058 1.52134 0.0814595 0.644006 0.760671
4.88707 -6.32254 -0.188272 0.608847 -0.787683 -0.0941362
-1.99179 5.966 1.97891 -0.0458706 0.137396 0.989454
3.29765 2.76138 -1.05539 -0.651256 -0.545349 -0.527693
3.84132 2.40665 -1.35934 -0.621599 -0.389442 -0.679669
-1.10949 -6.81588 -1.78323 -0.0727491 -0.446916 -0.891613
0.439105 -5.14894 1.81856 -0.035364 0.414678 0.909281
1.35084 -7.88451 0.0494075 0.168817 -0.985338 0.0247038
3.0858 2.85369 0.87806 -0.65964 -0.610023 0.43903
0.276513 6.75664 -1.84903 0.0155854 0.380832 -0.924513
-6.33283 3.90256 -1.38927 -0.612418 0.377398 -0.694633
-1.18941 -6.62021 -1.8635 -0.0642088 -0.357382 -0.931748
4.54616 -2.76942 -1.88203 -0.288966 0.176032 -0.941016
3.18852 2.62532 0.709953 -0.721716 -0.594237 0.354977
-3.38431 2.99968 1.34779 0.552903 -0.490065 0.673895
7.62357 0.203961 1.16412 0.812856 0.0217471 0.582059
-5.55534 -3.00862 -1.9746 -0.139692 -0.0756532 -0.987301
-2.7848 2.93928 0.440062 0.670918 -0.708135 0.220031
6.13825 -4.81304 0.871319 0.708327 -0.555403 0.43566
3.5164 6.25844 1.61578 0.288678 0.513785 0.807892
-4.35897 -2.93873 -1.85689 0.308007 0.207652 -0.928446
7.02758 0.178174 1.71448 0.514752 0.0130508 0.85724
-4.80223 4.30042 1.94956 -0.166245 0.148873 0.974782
-7.28684 1.82822 1.30835 -0.733607 0.184057 0.654174
-1.07586 -7.03524 -1.65899 -0.0844286 -0.552095 -0.829496
-5.5512 -3.87259 -1.84645 -0.315148 -0.219851 -0.923227
-3.21621 -6.1254 1.77666 -0.213476 -0.406573 0.888328
7.95098 0.276213 -0.418262 0.977298 0.0339508 -0.209131
-5.96067 5.08982 -0.78827 -0.698916 0.596804 -0.394135
7.31428 3.21305 -0.210516 0.910471 0.399955 -0.105258
1.26846 -7.46475 -1.23676 0.131654 -0.774771 -0.618383
-0.199546 -6.5592 -1.91935 -0.00854822 -0.280985 -0.959674
0.997859 7.9368 0.0536893 0.124699 0.991831 0.0268447
-0.299337 4.01584 0.327383 0.0733303 -0.983782 0.163691
-0.43372 4.15359 0.820764 0.0947077 -0.906982 0.410382
-2.41691 -7.46445 -0.769637 -0.284322 -0.878109 -0.384819
-2.0441 -6.03434 1.96526 -0.0595409 -0.175769 0.982629
-3.65502 -2.60909 1.31227 0.614208 0.438446 0.656135
2.2269 7.6211 0.487043 0.27203 0.930966 0.243521
4.35895 1.98713 -1.59285 -0.550258 -0.250848 -0.796424
3.56453 -4.52582 1.98567 -0.0739448 0.0938862 0.992833
-1.09992 -3.85 -0.127087 0.274148 0.959586 -0.0635434
-3.95902 2.02546 -1.26031 0.691258 -0.353651 -0.630154
-4.25479 0.00300505 -0.976858 0.872603 -0.000616298 -0.488429
-0.168702 7.22627 1.57843 -0.0143331 0.613952 0.789214
0.673547 -7.4545 -1.33984 0.0668099 -0.73942 -0.669921
2.04603 5.21011 1.95907 -0.0735709 -0.187344 0.979535
1.32307 3.77514 0.0332476 -0.3307 -0.94359 0.0166238
2.12718 -7.62138 0.584552 0.257094 -0.921128 0.292276
-3.17991 5.8526 1.88772 -0.157711 0.290265 0.943861
0.303152 -5.58521 -1.95824 -0.0110175 0.202984 -0.97912
0.524862 7.60925 1.16266 0.0559911 0.811738 0.581332
-7.87882 0.349459 0.663978 -0.942357 0.0417975 0.331989
-4.22982 6.26038 1.25729 -0.435385 0.644395 0.628645
0.309661 -6.71584 -1.86475 0.0166502 -0.361106 -0.932376
-6.29348 -3.60217 -1.56009 -0.543061 -0.310829 -0.780045
-0.637799 4.61328 1.48216 0.091951 -0.665093 0.741078
2.42688 -6.80401 -1.58181 0.205582 -0.57637 -0.790907
-2.04608 -7.61118 -0.678483 -0.244214 -0.908446 -0.339241
-1.30438 -7.34167 1.37047 -0.127405 -0.717094 0.685233
-3.65476 3.95716 -1.90364 0.208059 -0.225274 -0.951821
-2.42373 6.93033 -1.48298 -0.2215 0.63335 -0.741489
-7.56287 1.59475 -1.00496 -0.845985 0.178389 -0.502481
-7.60586 -0.724953 1.14425 -0.816466 -0.0778215 0.572126
6.95917 -3.91434 -0.248619 0.864826 -0.48644 -0.12431
-1.38491 -5.02114 -1.83677 0.105208 0.381443 -0.918386
6.91011 0.259037 1.77844 0.457163 0.0171375 0.889218
-5.04635 1.60406 -1.87168 0.335862 -0.106759 -0.935841
1.78995 6.89454 1.65488 0.141111 0.543533 0.827442
0.0684105 7.84041 0.782175 0.00803013 0.920319 0.391087
-3.79598 -2.19378 1.17878 0.699443 0.404224 0.589391
2.87676 7.32981 -0.698335 0.342349 0.872284 -0.349168
-1.60435 4.17782 1.29431 0.2733 -0.711687 0.647154
-1.07884 -4.17632 1.07491 0.210919 0.816489 0.537456
-1.24759 -3.98847 -0.827107 0.271809 0.868961 -0.413553
-2.84222 4.5275 1.88994 0.173942 -0.27708 0.944971
-5.051 -6.20296 0.0518251 -0.631215 -0.775175 0.0259125
3.47802 4.47097 -1.97165 -0.103009 -0.132417 -0.985827
-2.35686 -3.23577 -0.111689 0.587836 0.80705 -0.0558443
6.43045 -4.51862 -0.736888 0.760636 -0.534492 -0.368444
6.36955 -4.71481 -0.543668 0.773495 -0.572549 -0.271834
-1.40662 -3.79238 -0.42115 0.33996 0.916562 -0.210575
-3.75173 -6.94283 -0.649309 -0.449653 -0.832113 -0.324654
-4.26906 -2.09892 -1.56694 0.557673 0.274184 -0.783469
-3.74327 2.70906 -1.44831 0.558679 -0.404325 -0.724154
1.52226 -6.37221 1.92245 0.064073 -0.26821 0.961227
-3.94035 -3.10898 1.74298 0.385004 0.303772 0.87149
-5.79529 4.84062 -1.26275 -0.595173 0.497129 -0.631374
3.9997 0.0792865 -0.0442426 -0.999559 -0.0198144 -0.0221213
-2.03557 5.02398 -1.91426 0.108769 -0.268453 -0.957132
0.324599 -4.88213 1.66564 -0.0367228 0.552328 0.832818
-7.20079 -0.886014 -1.55716 -0.62285 -0.0766379 -0.778579
0.681316 -4.31298 1.15393 -0.127444 0.806765 0.576965
-2.93259 -7.44181 0.069492 -0.366408 -0.929805 0.034746
-1.72592 -3.80319 0.82146 0.37678 0.830263 0.41073
-0.847717 7.91255 0.408545 -0.10428 0.973344 0.204272
5.63929 3.22629 -1.93727 0.215679 0.123392 -0.968637
-4.01929 -2.62561 -1.60066 0.501947 0.327898 -0.800332
-7.95122 -0.423122 -0.385624 -0.979849 -0.0521424 -0.192812
1.59295 4.23846 -1.35387 -0.258943 -0.688988 -0.676937
0.214157 7.9941 0.110095 0.0267392 0.998126 0.0550472
-5.81557 -0.638083 -1.9944 0.0743204 0.00815442 -0.997201
4.85657 -0.765044 -1.68106 -0.535169 0.0843038 -0.840528
-5.18208 -5.21734 -1.47239 -0.476923 -0.480169 -0.736194
3.43193 -4.11466 -1.89417 -0.205595 0.246494 -0.947086
-4.70659 -3.69567 1.99994 0.00623473 0.00489559 0.999969
5.5961 -5.21189 1.1343 0.602707 -0.561327 0.567148
2.13723 6.32257 1.883 0.107923 0.319268 0.941499
-1.32561 5.26908 -1.91803 0.0691347 -0.2748 -0.959013
-0.199749 -6.69413 1.87458 -0.0103961 -0.348402 0.937287
4.85323 3.98762 -1.98012 0.10868 0.089296 -0.990058
7.31926 -2.50585 0.992541 0.821364 -0.281205 0.496271
-4.16916 -3.99063 -1.98687 0.0826352 0.0790966 -0.993436
6.62947 2.31866 1.71842 0.482938 0.168908 0.859209
4.44809 -6.55193 0.56282 0.538987 -0.793915 0.28141
4.59116 2.56201 -1.85712 -0.324132 -0.180876 -0.928559
-0.890679 -6.19164 1.98363 -0.0181811 -0.126388 0.991814
-1.74352 3.60621 0.149174 0.434061 -0.897791 0.074587
3.26229 -3.16419 -1.37193 -0.522307 0.5066 -0.685967
-3.84663 -4.77998 1.9954 -0.0424873 -0.0527965 0.997701
4.16493 -4.18228 1.99762 -0.0344416 0.0345851 0.998808
3.41179 -3.52923 -1.67606 -0.379234 0.392289 -0.838028
7.43348 -2.39002 0.854525 0.860732 -0.276744 0.427263
3.46202 -4.01424 1.87384 -0.228285 0.264698 0.936921
6.71983 -3.3413 1.31753 0.673664 -0.334965 0.658767
3.921 -5.94323 1.6569 0.308422 -0.467488 0.828451
-5.68191 -3.68772 -1.84427 -0.324506 -0.210614 -0.922137
0.98404 7.7845 0.768509 0.115784 0.915938 0.384254
-7.48295 2.43771 0.709282 -0.889018 0.289614 0.354641
5.2882 2.91588 -1.99962 0.0169998 0.00937356 -0.999812
-2.14833 6.1925 -1.92158 -0.0908827 0.261967 -0.960788
4.27103 2.708 -1.76382 -0.398133 -0.252432 -0.881912
-3.63359 1.6728 0.0247989 0.908292 -0.418152 0.0123995
2.02063 6.8416 1.64761 0.160567 0.54366 0.823804
-2.19931 3.99723 -1.39036 0.346522 -0.629801 -0.695178
6.62835 -2.14339 1.75108 0.459705 -0.148654 0.875542
-5.20587 -5.88493 -0.742499 -0.61522 -0.69547 -0.37125
6.32043 1.48096 -1.93864 0.239324 0.056077 -0.969319
4.39096 6.68622 -0.0590679 0.548691 0.835504 -0.029534
2.62573 4.54168 1.85246 -0.188673 -0.326345 0.92623
-4.19654 -6.27329 -1.26696 -0.430223 -0.643128 -0.633479
5.99842 4.27134 -1.4629 0.555459 0.39553 -0.731451
2.48266 -6.93131 -1.46409 0.229722 -0.641358 -0.732044
3.12162 -3.23758 1.3199 -0.521481 0.540853 0.659951
-3.61389 3.86204 -1.86943 0.242832 -0.259507 -0.934713
-0.0693391 7.69671 1.05836 -0.00764386 0.848477 0.529178
2.28636 6.04095 1.94658 0.0812629 0.21471 0.973291
3.89488 1.50298 -0.817734 -0.851402 -0.328545 -0.408867
0.359908 4.94209 1.70538 -0.0379443 -0.521034 0.852692
-3.06796 -5.3209 1.99495 -0.0354689 -0.0615154 0.997476
-4.31211 -5.15365 -1.86602 -0.230922 -0.275987 -0.933009
-5.01823 6.20855 -0.260032 -0.623277 0.771117 -0.130016
-4.65493 -4.57793 -1.92881 -0.188527 -0.185409 -0.964407
-3.84789 3.15661 -1.71856 0.395462 -0.324417 -0.85928
-6.94665 2.11054 -1.55304 -0.60288 0.183168 -0.776521
2.04849 -3.60046 0.741212 -0.459301 0.807276 0.370606
3.91041 -2.05871 -1.22522 -0.69938 0.368202 -0.612612
-4.02457 -0.21184 0.345929 0.983566 0.0517717 0.172964
-0.00767938 5.93683 -1.999 4.08525e-05 -0.0315825 -0.999501
-1.42634 -3.76972 0.348151 0.348482 0.921009 0.174075
6.81834 2.96707 -1.39214 0.658341 0.286483 -0.696071
-6.17571 -3.6988 1.60102 -0.514158 -0.307944 0.800508
2.1444 -4.5467 -1.74737 -0.207525 0.440008 -0.873686
1.81343 -4.36831 1.54483 -0.243509 0.586581 0.772416
2.59219 -4.18871 1.68712 -0.282607 0.456664 0.843559
4.87831 1.98896 -1.86131 -0.338823 -0.138144 -0.930653
6.67129 1.14343 -1.84643 0.378761 0.0649181 -0.923215
-2.08576 4.33395 -1.60726 0.258082 -0.536261 -0.803628
7.13482 -3.27622 -0.757322 0.8411 -0.386222 -0.378661
1.69537 -7.55405 0.982643 0.190731 -0.849838 0.491322
3.94172 6.77807 0.781759 0.462719 0.795678 0.39088
-4.89616 3.90208 -1.98291 -0.102008 0.0812972 -0.991456
2.17235 -6.22454 -1.91015 0.0976533 -0.279811 -0.955076
3.04323 2.59592 -0.00575503 -0.760804 -0.648975 -0.00287752
3.72587 -6.20728 1.56949 0.31899 -0.531436 0.784743
2.99027 -6.34143 -1.7256 0.215618 -0.457259 -0.8628
-5.82445 -5.24921 -0.781907 -0.683715 -0.616189 -0.390954
-7.85042 0.73778 -0.66838 -0.938371 0.0881878 -0.33419
-5.7007 -5.57306 0.331956 -0.705148 -0.68936 0.165978
6.17701 -3.93239 1.50032 0.557813 -0.355113 0.75016
-3.90178 0.881777 0.0269197 0.975313 -0.220414 0.0134599
7.99211 -0.255659 0.123251 0.997589 -0.0319118 0.0616253
4.99046 -3.17322 -1.99815 -0.036335 0.0231039 -0.999073
6.89394 -1.52358 -1.69582 0.517653 -0.114403 -0.847908
-0.372667 7.87819 -0.66274 -0.0445812 0.942447 -0.33137
-2.42114 -3.94234 -1.45373 0.359409 0.585226 -0.726867
-5.24122 -4.35421 1.82689 -0.313032 -0.260055 0.913445
4.93601 3.80764 -1.98627 0.0926264 0.071452 -0.993134
-7.96626 -0.568802 0.231671 -0.990746 -0.0707407 0.115836
1.68166 -6.56032 1.84482 0.0959007 -0.374118 0.922409
-0.335872 -7.73011 -0.990664 -0.0377094 -0.867885 -0.495332
3.03217 7.15793 -0.924156 0.345917 0.816594 -0.462078
-6.63321 -3.99105 -0.983776 -0.746031 -0.44887 -0.491888
3.15175 -6.98439 -1.11167 0.341925 -0.757717 -0.555834
2.04161 -6.33454 -1.88956 0.100527 -0.311908 -0.944779
-6.75528 -4.13422 -0.560191 -0.818804 -0.501106 -0.280096
6.3229 -3.92714 -1.3846 0.612996 -0.38073 -0.692301
-4.61709 -3.00991 1.93943 0.204594 0.133376 0.969717
-6.64823 -4.37158 0.413721 -0.817475 -0.537535 0.206861
1.81118 -5.42173 1.97977 -0.0449534 0.134567 0.989884
-3.93572 -6.32031 -1.38216 -0.38206 -0.613543 -0.691083
4.06558 2.26614 -1.47974 -0.58763 -0.327542 -0.739869
3.08948 -5.53477 1.97112 0.082531 -0.147854 0.98556
-7.32594 3.11297 -0.398487 -0.901903 0.38324 -0.199244
5.70281 -2.84494 -1.9649 0.166908 -0.0832651 -0.98245
1.9149 -3.69759 0.793193 -0.422157 0.815166 0.396596
6.46702 -2.95828 -1.66268 0.505395 -0.231188 -0.831341
-5.65299 -2.04996 1.99996 -0.00620404 -0.00224979 0.999978
1.84966 7.38781 1.17858 0.196219 0.78373 0.589292
6.71353 -4.19717 -0.568292 0.812979 -0.508259 -0.284146
-2.26021 5.72394 -1.99406 -0.0282853 0.0716319 -0.99703
2.48059 -7.52397 -0.551929 0.300955 -0.912836 -0.275964
-6.34457 -3.61574 1.51769 -0.565833 -0.322466 0.758847
-1.43293 3.78154 -0.416865 0.346558 -0.914578 -0.208433
-6.15366 -2.10761 -1.9353 -0.238677 -0.0817464 -0.967652
6.6223 -4.48418 -0.0964883 0.827064 -0.560033 -0.0482442
-3.77205 1.71975 -0.749101 0.84366 -0.384642 -0.374551
-1.28612 -7.22392 1.48696 -0.11722 -0.658404 0.743481
-2.45312 -7.5663 0.426303 -0.301324 -0.929392 0.213152
5.08616 6.01552 -0.689113 0.606118 0.71687 -0.344557
0.376236 -4.38611 1.20296 -0.0682772 0.795967 0.601478
3.33748 5.03903 -1.99951 0.0121633 0.0183646 -0.999757
4.15106 -1.34672 1.15051 -0.778054 0.252422 0.575253
4.10112 -0.108315 0.632205 -0.948394 0.0250482 0.316102
-3.7928 -3.73065 -1.88088 0.242371 0.238399 -0.940437
-3.646 -6.14345 -1.64058 -0.291903 -0.491851 -0.820289
6.60355 -3.90843 1.09516 0.720082 -0.426193 0.547578
4.20831 -1.17998 1.15978 -0.784441 0.219952 0.579891
0.459947 7.73712 -0.966839 0.0519474 0.873846 -0.483419
1.01947 -7.0988 -1.62089 0.083275 -0.579865 -0.810446
7.90798 -0.710051 -0.487048 0.966009 -0.0867371 -0.243524
-1.85715 -6.15348 -1.95375 -0.0617766 -0.204691 -0.976875
5.51825 -0.905502 1.95795 -0.201283 0.033029 0.978976
-5.94417 0.601353 -1.99984 0.0126812 -0.00128292 -0.999919
1.1101 -7.88301 0.394082 0.136712 -0.970816 0.197041
6.90833 -1.85491 1.63418 0.556791 -0.149501 0.817088
-3.44626 -2.20572 -0.59861 0.803647 0.514361 -0.299305
2.84573 -5.25686 1.99988 -0.00531003 0.00980911 0.999938
3.97512 0.503993 -0.166547 -0.988613 -0.125343 -0.0832733
4.27003 -5.63643 1.68892 0.32344 -0.42694 0.844458
7.61569 -2.44961 -0.0122824 0.951948 -0.306197 -0.00614122
-7.79223 -0.986544 -0.749054 -0.919873 -0.116462 -0.374527
2.18894 6.04031 -1.95439 0.0723501 0.199648 -0.977193
-3.50245 3.54655 1.72301 0.356781 -0.361274 0.861504
-1.5884 -4.00052 -1.06051 0.312874 0.787998 -0.530253
4.6017 1.06805 -1.54009 -0.621468 -0.144243 -0.770047
-1.22176 -5.40966 1.94777 0.0500175 0.221465 0.973885
1.74776 -7.22827 -1.3915 0.168813 -0.698163 -0.695752
1.44992 -4.03183 -1.02831 -0.290245 0.807094 -0.514157
-1.10616 4.16182 -1.06369 0.217528 -0.818428 -0.531843
-6.10061 -1.4904 -1.9803 -0.136014 -0.0332285 -0.99015
7.20069 2.67962 1.08033 0.788716 0.293508 0.540167
2.4067 -6.15389 1.90542 0.110681 -0.283011 0.952709
-2.27232 5.03359 -1.94222 0.0981867 -0.217501 -0.971109
-5.54442 -1.30836 -1.97687 0.147594 0.0348289 -0.988435
0.594007 4.7135 -1.56187 -0.0780972 -0.619709 -0.780937
1.14366 -4.77322 -1.67578 -0.127184 0.530818 -0.837888
-4.11895 5.21501 -1.89298 -0.200032 0.253261 -0.946491
3.33333 2.2251 -0.176002 -0.828491 -0.553044 -0.0880012
2.25559 -3.7452 1.1617 -0.419963 0.697312 0.58085
-2.7867 3.26358 -1.03967 0.554727 -0.649655 -0.519833
7.99398 0.268368 0.0778915 0.998679 0.033527 0.0389458
-1.11007 3.8645 -0.287519 0.273215 -0.95115 -0.143759
-6.25296 4.93342 0.373551 -0.771259 0.608502 0.186776
0.138233 7.93712 -0.492844 0.0168763 0.969016 -0.246422
7.11754 3.65234 0.0160025 0.889671 0.456532 0.00800125
-3.41435 2.65888 1.09673 0.65978 -0.513795 0.548366
-0.260925 -6.2169 1.9876 -0.00466244 -0.111089 0.9938
5.9001 -5.06459 0.920292 0.673685 -0.578285 0.460146
-3.16863 -4.17147 -1.84934 0.230321 0.303216 -0.924669
-7.50297 -2.47125 0.626112 -0.902064 -0.297113 0.313056
-0.239047 5.08347 1.78052 0.0213938 -0.454953 0.890259
3.64205 -7.12006 -0.100259 0.454826 -0.889168 -0.0501295
-7.18943 -3.18024 0.731523 -0.851153 -0.376507 0.365762
-4.27484 2.47853 -1.69687 0.457904 -0.26549 -0.848433
2.80398 7.33787 -0.746751 0.331137 0.866568 -0.373375
-2.76194 -5.78176 1.95803 -0.0878427 -0.183887 0.979014
-5.306 -0.385717 -1.88085 0.339103 0.0246509 -0.940426
-0.98282 -4.9096 -1.73608 0.0974563 0.486836 -0.86804
-4.98698 5.21509 1.58806 -0.420118 0.439335 0.794031
0.0278611 7.35069 -1.47495 0.00255983 0.675369 -0.737476
0.52522 -4.02564 -0.485226 -0.125507 0.96197 -0.242613
-6.80819 -3.99154 -0.648287 -0.816091 -0.478462 -0.324144
-2.59164 -3.49675 -1.13384 0.490512 0.661818 -0.566918
-3.38498 -2.40286 -0.762669 0.753821 0.535106 -0.381334
4.0804 -6.8628 0.25077 0.507025 -0.852763 0.125385
-6.15079 5.05273 0.397785 -0.757271 0.62208 0.198892
-2.00375 -7.1526 1.40032 -0.192603 -0.687515 0.700162
-7.25341 -1.38703 1.44299 -0.680094 -0.130051 0.721497
-4.71319 -6.00449 1.15419 -0.504254 -0.642409 0.577095
4.69923 -5.3749 -1.64365 0.375007 -0.428926 -0.821823
-4.65805 0.400044 -1.4983 0.659972 -0.0566798 -0.749149
-3.30851 4.28383 1.91183 0.17949 -0.232402 0.955915
-0.741158 -3.9741 -0.410673 0.179429 0.962103 -0.205337
0.895696 5.31277 -1.90398 -0.0508927 -0.301867 -0.951991
-2.35509 -7.62723 0.263612 -0.292456 -0.947152 0.131806
1.98718 -4.9926 1.89936 -0.115834 0.291022 0.949678
-3.9523 2.4736 1.48702 0.566859 -0.354777 0.743508
0.259934 -7.55059 -1.25769 0.0267512 -0.777072 -0.628843
-2.94798 3.79387 -1.60343 0.366739 -0.471972 -0.801714
0.829632 -7.93575 -0.289058 0.102885 -0.984137 -0.144529
3.36848 -7.17408 -0.540668 0.409191 -0.871483 -0.270334
-4.80571 3.86701 1.9929 -0.0655825 0.0527722 0.996451
2.29103 7.4273 0.926192 0.261245 0.846932 0.463096
-5.79734 -5.05196 1.07002 -0.636938 -0.555046 0.535008
5.5161 -0.509964 -1.94629 -0.229212 0.0211906 -0.973146
7.09071 1.3299 -1.58914 0.596769 0.111928 -0.794568
0.335903 -4.70056 -1.53051 -0.045884 0.642091 -0.765254
7.9725 -0.352787 -0.280034 0.989181 -0.0437717 -0.140017
-1.42764 -4.49605 -1.53447 0.194104 0.61129 -0.767234
-4.37026 4.08442 1.99992 0.00665681 -0.00622143 0.999958
-2.14692 -3.47357 0.571873 0.503804 0.815121 0.285936
2.87964 4.36959 1.84714 -0.210993 -0.320162 0.923568
2.92781 -2.80958 0.477407 -0.700667 0.672373 0.238704
-1.69431 -5.5277 -1.98803 0.0320119 0.104439 -0.994016
-4.55981 -2.9299 1.91405 0.243986 0.156773 0.957023
-0.0223219 4.02596 -0.321553 0.00547229 -0.986976 -0.160776
-4.56612 -1.62725 1.63449 0.542851 0.193458 0.817243
4.00528 -6.38418 -1.28021 0.408303 -0.650811 -0.640104
2.41755 -6.85691 1.54453 0.211245 -0.599154 0.772263
1.1037 -7.1283 1.58998 0.0928196 -0.599478 0.794991
1.80089 -7.63162 0.780957 0.211436 -0.896003 0.390478
0.123638 -4.12645 -0.704814 -0.0280275 0.935427 -0.352407
2.52481 -6.81476 1.54713 0.220163 -0.594245 0.773564
1.48525 -4.77993 1.73514 -0.14757 0.474919 0.867568
-5.1177 -4.6678 1.77235 -0.342341 -0.312245 0.886175
6.71119 -0.599762 -1.85889 0.367501 -0.0328427 -0.929443
5.07072 -2.19709 -1.94308 -0.217352 0.0941759 -0.97154
7.16542 -0.78037 -1.59413 0.600345 -0.0653822 -0.797064
-4.18232 5.12547 1.903 -0.194503 0.238366 0.951499
-1.87712 4.94645 1.86998 0.12584 -0.331604 0.934988
-6.61283 -2.05365 1.77356 -0.441393 -0.137077 0.886782
-7.48584 0.492311 1.3206 -0.749385 0.0492838 0.660298
-2.23954 7.6759 -0.127489 -0.279516 0.958023 -0.0637446
7.64096 -0.714134 1.09401 0.833498 -0.0778998 0.547004
0.218267 7.48937 1.33127 0.0217399 0.74596 0.665636
-3.85747 -2.84887 1.59656 0.484482 0.357806 0.79828
4.29486 2.31795 -1.65728 -0.492616 -0.265866 -0.82864
5.55737 2.15076 -1.99958 -0.0190991 -0.00739157 -0.99979
5.60533 5.66978 -0.328515 0.693504 0.701478 -0.164258
-6.22311 1.24457 -1.96978 -0.169808 0.0339602 -0.984892
7.70695 0.847661 0.962021 0.87146 0.0958488 0.48101
-4.64524 -5.40458 -1.65254 -0.367155 -0.427172 -0.82627
-1.72878 3.85845 0.927449 0.362262 -0.808533 0.463724
-7.04793 3.70089 -0.395397 -0.867886 0.45573 -0.197698
-4.71219 -6.46204 -0.09661 -0.588508 -0.807047 -0.048305
4.93062 3.05596 1.99006 -0.0846344 -0.0524557 0.99503
6.0218 3.49296 -1.7537 0.415865 0.241223 -0.876851
5.32983 1.21925 -1.92781 -0.25954 -0.0593722 -0.963906
3.02568 -2.61727 0.0490874 -0.756077 0.654022 0.0245437
-4.299 -5.30469 1.82057 -0.260652 -0.321628 0.910284
-6.06351 -5.2184 -0.0229732 -0.757901 -0.652268 -0.0114866
1.9082 3.73367 0.857246 -0.411165 -0.804503 0.428623
7.0341 -3.78292 0.229374 0.874904 -0.470521 0.114687
-5.99158 1.14943 1.99746 -0.0495156 0.00949911 0.998728
-3.98174 -5.17903 -1.92774 -0.162353 -0.211172 -0.963871
1.28625 3.95176 -0.773946 -0.285392 -0.876814 -0.386973
-3.75224 2.1329 1.07908 0.731968 -0.416076 0.53954
5.51146 -0.769083 -1.95209 -0.215482 0.0300689 -0.976045
-4.86327 -2.7284 -1.95461 0.184744 0.103645 -0.977306
-5.13628 5.62725 -1.1744 -0.545686 0.597847 -0.587202
-6.14497 -1.94408 1.94983 -0.212214 -0.0671381 0.974914
-3.56406 -6.94303 0.862698 -0.412006 -0.802614 0.431349
-0.0172118 4.24353 -0.956521 0.00356203 -0.878211 -0.478261
-3.95777 2.89503 1.67268 0.442469 -0.323657 0.836342
-4.05407 3.28701 -1.84128 0.303254 -0.245876 -0.920642
3.65278 -4.98236 -1.99207 0.0525982 -0.0717435 -0.996035
5.1337 2.21804 -1.95802 -0.1871 -0.0808373 -0.979009
1.24276 -7.81464 -0.583994 0.150211 -0.94455 -0.291997
4.11834 -0.965173 0.93104 -0.86169 0.201945 0.46552
5.79131 -5.51643 0.0862541 0.723408 -0.689073 0.043127
4.33687 6.43565 0.948933 0.491929 0.729992 0.474467
-2.79472 -5.67307 1.97357 -0.0716108 -0.145365 0.986783
3.98249 -5.68763 -1.76357 0.270526 -0.386355 -0.881785
0.00400472 6.89598 -1.78808 0.000260162 0.447989 -0.894039
7.34226 1.16547 1.39395 0.708227 0.11242 0.696977
7.18414 -3.51639 -0.0761847 0.897528 -0.439309 -0.0380923
1.9603 7.22833 -1.33477 0.194923 0.71875 -0.667386
5.49077 -3.83069 1.87537 0.284988 -0.198825 0.937683
-2.65047 6.90707 -1.43009 -0.250453 0.652673 -0.715046
1.51237 6.76757 1.76825 0.101904 0.456001 0.884126
2.37092 6.35939 1.83866 0.137459 0.368699 0.919329
0.695723 -4.90086 -1.7022 -0.073789 0.51979 -0.851102
5.40527 0.107671 1.90986 -0.296768 -0.00591153 0.954931
5.64971 1.68256 1.99724 -0.05035 -0.0149949 0.998619
1.01791 -7.58723 1.12263 0.110046 -0.820254 0.561315
-7.75192 -0.338223 0.951253 -0.878811 -0.0383433 0.475627
-5.05775 5.52695 -1.33205 -0.503577 0.550293 -0.666023
3.40595 -2.10409 -0.117516 -0.849282 0.52466 -0.0587581
-4.03519 0.147203 -0.387381 0.980411 -0.0357651 -0.19369
1.40245 6.32148 -1.94273 0.0514596 0.231952 -0.971365
0.507731 3.995 0.328356 -0.124367 -0.978559 0.164178
2.62935 -4.09434 -1.64738 -0.306408 0.477129 -0.823688
4.20749 6.20817 1.3233 0.420664 0.620692 0.661652
-0.538835 -6.06342 -1.99809 -0.00386465 -0.0434883 -0.999046
-6.91373 -0.666074 -1.76226 -0.470691 -0.0453467 -0.881132
-5.07047 -2.49071 -1.96899 0.157437 0.0773357 -0.984496
2.65843 2.99129 0.0867401 -0.663669 -0.746768 0.04337
3.15656 -2.4984 -0.319288 -0.774054 0.612661 -0.159644
1.91336 -4.86594 -1.84525 -0.141143 0.358945 -0.922625
-0.506857 7.98051 0.116808 -0.063276 0.996286 0.0584039
1.54997 -6.85246 1.71704 0.11313 -0.500149 0.858517
3.17848 2.51015 -0.444976 -0.765114 -0.604235 -0.222488
-1.25636 -7.31812 -1.40316 -0.120572 -0.702314 -0.701582
-4.9081 -3.53271 1.99944 -0.0191837 -0.0138079 0.999721
-5.93146 -1.55715 -1.99561 -0.0640528 -0.0168154 -0.997805
3.31148 3.8782 -1.78587 -0.292328 -0.342357 -0.892937
7.84108 -1.53675 0.197225 0.976547 -0.191391 0.0986126
-4.44663 -2.72124 1.83874 0.335542 0.205344 0.919372
0.637369 4.68087 1.54012 -0.0860748 -0.632137 0.770061
-0.964096 7.34977 -1.41569 -0.0918699 0.700369 -0.707844
4.47513 -2.03342 1.6804 -0.493703 0.22433 0.840199
-4.7051 5.1776 1.7343 -0.334955 0.368592 0.867148
-4.09124 3.25037 -1.84384 0.303308 -0.240969 -0.921921
-3.89817 4.76931 1.99361 -0.0505364 0.06183 0.996806
5.47899 5.04338 -1.38084 0.532247 0.48993 -0.690421
-2.02883 -3.70782 -0.924682 0.425632 0.777868 -0.462341
5.9486 -3.53995 1.77469 0.396252 -0.235805 0.887345
-4.75723 3.95075 -1.99153 -0.0707081 0.0587211 -0.995767
6.18384 -4.72095 -0.912071 0.707382 -0.540039 -0.456035
3.556 2.09828 0.706423 -0.805731 -0.475435 0.353212
-6.6213 -3.78753 1.16167 -0.706587 -0.404183 0.580836
-1.41203 3.7537 -0.204645 0.350237 -0.931056 -0.102323
-2.02084 3.73499 -0.962147 0.417184 -0.771055 -0.481073
-7.75702 -0.733312 0.888909 -0.891825 -0.0843089 0.444455
2.64943 -4.66479 -1.89641 -0.156883 0.276221 -0.948203
-3.67536 -2.75416 1.42117 0.563062 0.421934 0.710586
-2.34665 4.8531 1.90492 0.132626 -0.274284 0.952459
-6.23198 0.856836 1.97877 -0.143949 0.0197916 0.989387
-0.578349 3.96502 0.166967 0.143831 -0.986075 0.0834836
5.00014 -4.1993 -1.92861 0.202771 -0.170295 -0.964305
-4.14981 -1.43961 -1.18983 0.759391 0.263441 -0.594915
4.26905 -0.86906 1.13986 -0.80518 0.163912 0.569928
-4.61895 -3.3847 1.98119 0.11037 0.0808775 0.990594
-4.79775 4.66877 1.87556 -0.248852 0.242162 0.937779
3.9695 1.12778 0.700272 -0.901039 -0.255994 0.350136
-0.945365 -5.31396 -1.90706 0.0527739 0.296645 -0.953528
-5.53528 5.7317 0.355379 -0.683619 0.707878 0.177689
-2.57948 -7.57228 -0.0412357 -0.322383 -0.946385 -0.0206179
-5.40247 -0.371836 -1.91261 0.291686 0.0200759 -0.956303
-1.16098 7.86377 -0.448714 -0.14233 0.964057 -0.224357
7.50845 -2.3956 -0.678609 0.896169 -0.285926 -0.339304
2.04231 -7.30605 -1.21827 0.213507 -0.763786 -0.609135
1.10864 -6.71286 -1.83137 0.0654865 -0.396522 -0.915687
5.31973 3.01066 -1.99683 0.0489897 0.0277254 -0.998414
-7.74518 1.95229 0.223746 -0.963582 0.242886 0.111873
0.498054 -5.78892 1.99098 -0.00813041 0.0945002 0.995492
-2.25327 -4.98079 1.9276 0.109894 0.242917 0.963802
4.31932 5.84851 -1.54453 0.377418 0.511037 -0.772267
3.34853 -2.35623 -0.607344 -0.779202 0.548295 -0.303672
3.03092 -3.88551 1.68834 -0.32972 0.422688 0.844168
4.31604 -1.45287 1.3817 -0.685215 0.230658 0.690852
-0.859192 6.60804 1.88668 -0.0427854 0.329063 0.943338
-5.62792 4.10751 1.75045 -0.390721 0.285166 0.875224
6.8328 -3.59981 -1.0154 0.762222 -0.401571 -0.507699
7.2638 -3.31872 -0.235939 0.903212 -0.412663 -0.117969
3.3902 -6.43094 -1.54516 0.296085 -0.56165 -0.772582
1.37733 7.87802 0.0997101 0.172006 0.983834 0.049855
-2.83616 7.28656 0.831259 -0.32991 0.847592 0.415629
5.06538 -1.47828 -1.86462 -0.347176 0.10132 -0.932311
-6.93595 -3.73458 -0.689291 -0.826535 -0.445038 -0.344646
3.99534 -0.255456 0.118246 -0.996216 0.0636966 0.0591231
-1.69691 7.03631 1.57075 -0.145125 0.601766 0.785377
5.10731 2.00829 1.93335 -0.238257 -0.0936868 0.966673
4.18095 6.13806 -1.40159 0.401594 0.589581 -0.700797
-4.05484 -0.47849 -0.570082 0.95191 0.11233 -0.285041
0.405104 4.70411 -1.53802 -0.0548464 -0.636882 -0.769008
5.70458 -1.67086 -1.99922 -0.0267574 0.00783718 -0.999611
-1.92112 3.70718 -0.819026 0.419756 -0.810002 -0.409513
5.10932 4.9786 1.64755 0.406033 0.395644 0.823774
1.77377 -6.19221 -1.95072 0.060755 -0.212095 -0.975359
-5.9512 3.33646 1.82297 -0.35879 0.201151 0.911487
0.837465 -3.9115 0.0243195 -0.209343 0.977767 0.0121598
4.66112 2.6444 1.8945 -0.278761 -0.15815 0.947249
-2.66973 3.15424 0.71558 0.603282 -0.712767 0.35779
3.11399 7.31255 -0.453182 0.381606 0.896121 -0.226591
-5.5208 -5.78327 0.136481 -0.688893 -0.721644 0.0682406
-3.73998 -5.21715 -1.95557 -0.122118 -0.170351 -0.977787
4.56916 -3.81284 -1.9994 -0.0187917 0.0156812 -0.9997
-7.64291 -0.359926 1.12825 -0.824775 -0.038841 0.564125
5.61214 2.74155 -1.98482 0.110508 0.0539836 -0.992408
-3.358 2.53419 -0.885943 0.71562 -0.540059 -0.442971
-4.23753 -6.78446 0.0600218 -0.529513 -0.847771 0.0300109
7.22286 1.3703 -1.47408 0.664004 0.125973 -0.737041
-4.68749 1.26337 -1.63964 0.552891 -0.149015 -0.81982
-0.881203 -7.61402 1.10829 -0.0957009 -0.826902 0.554143
4.37875 -3.42693 -1.95107 -0.173118 0.135487 -0.975538
5.4867 4.11131 1.80749 0.34257 0.256696 0.903744
5.18642 4.12378 -1.89949 0.245014 0.194813 -0.949745
6.97326 -2.70866 1.34427 0.690189 -0.268094 0.672134
-2.50342 -5.23877 -1.99059 0.0417816 0.087434 -0.995294
4.67847 -3.57903 1.997 -0.0434982 0.0332761 0.998499
-5.26238 -1.21783 1.90834 0.291566 0.0674749 0.954168
4.26447 -1.64771 -1.40001 -0.666142 0.257385 -0.700006
4.0493 1.49347 -1.07886 -0.790011 -0.291373 -0.539429
-5.68116 0.111527 1.9746 0.158841 -0.0031182 0.987299
-4.8374 -1.22871 1.72683 0.488968 0.124198 0.863415
-1.24059 3.87653 0.525245 0.294099 -0.918986 0.262622
6.8309 -0.804458 1.79692 0.436039 -0.0513513 0.898461
-0.534352 4.1568 0.852958 0.115323 -0.897115 0.426479
-7.39436 0.721468 -1.39878 -0.711361 0.0694075 -0.699391
-3.33776 7.10243 0.765697 -0.392917 0.836088 0.382848
3.31225 -4.87848 1.99733 -0.0290245 0.042749 0.998664
4.95319 -5.64151 1.31446 0.497266 -0.566368 0.657232
4.70792 -6.45875 -0.173125 0.586831 -0.805069 -0.0865626
4.04137 -0.175359 -0.422671 -0.976495 0.042371 -0.211336
-1.27009 -4.33312 1.34016 0.208789 0.712319 0.670081
0.65941 -5.9052 -1.99916 -0.00322397 0.0288715 -0.999578
5.39352 -1.09929 -1.93763 -0.242802 0.0494872 -0.968813
4.10072 6.24524 -1.35483 0.40375 0.614896 -0.677413
6.04787 -5.15848 -0.448758 0.741434 -0.6324 -0.224379
2.24771 7.07308 1.40675 0.215277 0.677433 0.703377
4.66026 4.33291 -1.96672 0.13305 0.123705 -0.983359
-4.05503 6.76464 -0.662947 -0.485078 0.809212 -0.331473
2.95025 -2.80326 -0.523292 -0.699682 0.664821 -0.261646
0.459493 -6.14287 1.99359 0.00596856 -0.0797925 0.996794
-0.277956 -7.79558 0.870678 -0.0320792 -0.899695 0.435339
5.65013 0.027916 1.96917 -0.174899 -0.000864137 0.984586
-5.82732 -3.02246 1.91868 -0.250562 -0.129959 0.959338
-5.79795 0.405851 1.99116 0.0937005 -0.00655895 0.995579
-7.48898 -2.14404 0.892441 -0.860358 -0.246314 0.446221
3.21433 -2.65264 -0.801312 -0.706666 0.583179 -0.400656
-0.145708 -3.99794 -0.0488028 0.0364107 0.999039 -0.0244014
3.78323 2.00663 1.02471 -0.758665 -0.402396 0.512353
0.532764 7.91326 -0.520165 0.0648617 0.963405 -0.260082
-5.24665 -5.94418 0.53009 -0.638082 -0.722913 0.265045
0.913465 -4.72853 1.61184 -0.112292 0.581277 0.805921
2.44107 7.60381 -0.235911 0.303533 0.945492 -0.117956
6.99495 -3.7666 -0.467511 0.856074 -0.460973 -0.233756
-3.81524 1.27152 -0.292753 0.938482 -0.312772 -0.146377
-2.70533 6.67554 -1.59783 -0.225896 0.557411 -0.798914
-0.217508 -7.2951 -1.52128 -0.0193469 -0.648884 -0.760642
-6.79351 -3.71655 0.979586 -0.764862 -0.418436 0.489793
1.54562 -7.62579 0.910265 0.176878 -0.872679 0.455133
-1.65392 -4.26979 -1.40732 0.256647 0.662567 -0.70366
-3.14269 5.39976 1.9846 -0.0623011 0.107045 0.9923
-4.07892 -0.230164 -0.578209 0.955777 0.0539323 -0.289105
7.15204 2.08966 1.37638 0.696416 0.203477 0.688188
-3.48484 5.27252 -1.97422 -0.0882475 0.133517 -0.98711
-4.1152 6.78891 0.491064 -0.502499 0.82898 0.245532
0.460467 7.75428 0.935082 0.0523999 0.882417 0.467541
-6.22262 4.81589 0.713153 -0.73884 0.571812 0.356576
-6.4388 0.537238 1.9461 -0.229787 0.0191729 0.973052
6.18719 -4.27872 1.29686 0.626139 -0.433002 0.648428
0.796623 -7.43548 -1.34738 0.0787261 -0.73481 -0.673689
-5.57759 -4.9551 1.36611 -0.546017 -0.485078 0.683056
-5.08151 -1.82024 1.90715 0.283516 0.101557 0.953575
-2.14712 6.83312 -1.62744 -0.174245 0.554526 -0.81372
5.35834 3.61269 1.9458 0.191722 0.129262 0.9729
6.76964 -1.44961 -1.77423 0.451321 -0.0966432 -0.887113
2.71591 -7.45717 -0.500581 0.331319 -0.909716 -0.25029
-0.289918 4.10939 0.681257 0.0661667 -0.937867 0.340628
1.33483 -5.26411 -1.91727 -0.0699635 0.275912 -0.958633
-3.74192 2.92772 1.56218 0.491779 -0.384773 0.781091
3.80146 -1.25461 0.112088 -0.948127 0.312913 0.056044
5.94446 5.29125 -0.406465 0.731365 0.651 -0.203233
7.92618 -0.235873 0.525652 0.964416 -0.0286998 0.262826
0.420832 -5.93901 1.99947 -0.00162911 0.0229909 0.999734
-4.6731 -6.47656 0.2323 -0.581167 -0.805453 0.11615
-1.68029 -5.61157 1.99493 0.0204037 0.068141 0.997467
5.05918 2.59694 1.97532 -0.13933 -0.07152 0.98766
-5.81686 -2.15408 1.98968 -0.0951361 -0.0352304 0.994841
0.52769 -6.54349 -1.91861 0.0226975 -0.281455 -0.959306
7.28417 1.71068 -1.34263 0.721542 0.169453 -0.671315
2.32203 -5.07624 -1.95586 -0.0869139 0.190004 -0.977929
2.61042 5.90338 1.94761 0.0919596 0.207963 0.973804
1.81194 5.1034 -1.91269 -0.0977789 -0.275398 -0.956345
6.75404 2.80109 1.50965 0.605884 0.251277 0.754827
3.48374 4.60857 -1.98754 -0.0671939 -0.0888896 -0.993772
-3.19801 -5.37263 -1.98401 -0.0645482 -0.108441 -0.992005
-4.26886 2.93676 1.82483 0.337177 -0.231961 0.912417
-4.43162 4.16664 1.99829 -0.0301534 0.0283505 0.999143
-7.50293 0.623621 -1.28948 -0.761773 0.0633163 -0.644742
-4.08077 -5.23302 -1.89616 -0.195567 -0.250788 -0.948082
6.53383 0.857167 -1.91105 0.292402 0.0383599 -0.955526
-0.756666 4.68563 1.55831 0.0999302 -0.618815 0.779154
-4.04454 -0.150288 -0.432517 0.975663 0.036254 -0.216259
-1.20851 -3.82215 -0.185874 0.300171 0.949347 -0.0929369
4.21417 3.27217 -1.88634 -0.262476 -0.203804 -0.94317
1.49611 -7.7754 -0.566729 0.181205 -0.941737 -0.283365
-7.89214 -0.962997 0.441456 -0.968155 -0.118134 0.220728
6.10585 -3.8435 1.58876 0.514055 -0.323586 0.79438
-5.4389 5.70473 0.676869 -0.649323 0.681059 0.338435
-6.04185 5.24183 0.069252 -0.754892 0.654934 0.034626
6.24472 4.34879 -1.18687 0.660503 0.459971 -0.593433
2.0645 -6.70388 -1.72356 0.149301 -0.484815 -0.86178
5.32439 -5.5596 -1.05688 0.587202 -0.613143 -0.528441
-7.27073 2.9584 -0.76099 -0.856589 0.348539 -0.380495
-5.25179 5.27044 -1.38758 -0.508338 0.510143 -0.693792
1.62306 -7.42314 1.20199 0.170723 -0.780807 0.600994
-6.31656 -1.52924 1.93674 -0.242515 -0.0587131 0.968369
5.34074 5.87056 0.500207 0.651553 0.716189 0.250103
3.98782 -2.26849 1.41631 -0.613708 0.34911 0.708156
2.09838 6.93163 -1.56739 0.179971 0.5945 -0.783696
5.55925 -1.57079 -1.98752 -0.107343 0.0303303 -0.993759
0.85699 3.91189 0.136467 -0.213499 -0.974557 0.0682334
5.92726 5.27501 0.507209 0.722592 0.643075 0.253604
7.07774 2.98661 1.08195 0.774875 0.326976 0.540976
-6.0107 -1.618 1.98734 -0.10847 -0.0291986 0.993671
-3.83574 -6.74421 0.952375 -0.43473 -0.764366 0.476187
-5.81696 2.52027 -1.97098 -0.155742 0.0674769 -0.98549
5.43755 -1.30618 -1.95799 -0.198246 0.0476215 -0.978995
2.28875 -5.20915 -1.97579 -0.0623941 0.142007 -0.987897
-7.0189 0.433035 -1.71303 -0.515145 0.0317821 -0.856513
0.48464 7.61451 1.15904 0.0517648 0.813312 0.579521
-1.42018 4.01764 0.988319 0.289742 -0.819668 0.494159
-5.7036 3.12529 -1.93552 -0.220879 0.121031 -0.967762
-4.80404 5.56371 -1.47494 -0.441391 0.511189 -0.737468
3.40938 7.14139 0.581854 0.412196 0.863398 0.290927
-5.39966 3.6056 -1.93833 -0.204921 0.136835 -0.969166
0.0112374 5.50925 -1.93886 -0.000500481 -0.245366 -0.96943
-4.66342 3.81943 -1.99981 -0.0107903 0.00883741 -0.999903
-6.18617 2.5928 -1.87066 -0.326279 0.136753 -0.935329
0.651131 -5.16849 -1.83708 -0.0494135 0.39223 -0.918539
-3.1067 7.36582 0.152502 -0.387489 0.918716 0.0762509
3.7669 1.37992 -0.216026 -0.933486 -0.341961 -0.108013
-4.35651 6.33117 1.07702 -0.477654 0.694157 0.53851
6.21794 -1.56313 1.95723 0.199497 -0.0501517 0.978614
-3.7913 -3.09045 1.66457 0.42968 0.35025 0.832286
3.4682 -7.06508 0.708137 0.412115 -0.839522 0.354068
-2.43683 -3.65346 1.18867 0.44625 0.669048 0.594336
1.00277 7.83629 -0.62393 0.120596 0.942409 -0.311965
1.1916 -6.66533 1.84541 0.0678432 -0.379486 0.922707
7.74923 1.84331 0.370182 0.956046 0.227414 0.185091
0.91829 3.89706 0.123037 -0.228921 -0.971499 0.0615185
3.32156 2.23765 0.140996 -0.827295 -0.557327 0.070498
6.41788 4.69246 0.442771 0.787213 0.575573 0.221386
-2.02849 7.31208 1.21553 -0.212284 0.765218 0.607764
2.93496 -6.43649 1.68712 0.222809 -0.48863 0.843562
-7.7819 1.8461 0.0920653 -0.971964 0.230579 0.0460327
-1.13777 4.76118 1.66718 0.128387 -0.537253 0.833592
-0.746739 -6.12451 -1.99277 -0.0102796 -0.0843103 -0.996387
-1.84683 4.38184 -1.56535 0.241745 -0.57357 -0.782673
5.2394 -3.43334 1.98248 0.110457 -0.072382 0.991242
-4.90255 6.12633 -0.768505 -0.576843 0.720835 -0.384252
-4.42376 -2.37727 1.7446 0.430719 0.231462 0.872299
-4.98861 5.36321 1.49844 -0.451088 0.484961 0.749221
-6.85926 -2.52213 1.51277 -0.613941 -0.225745 0.756384
-0.185461 -5.91893 1.99847 0.00122399 0.0390633 0.999236
-2.80166 -7.45339 0.385176 -0.345268 -0.918532 0.192588
-6.81019 4.04117 -0.56359 -0.825136 0.489635 -0.281795
3.77279 6.35952 -1.43374 0.355731 0.59963 -0.716868
-6.51419 -3.61064 -1.3797 -0.633194 -0.350962 -0.689849
2.44502 -5.77783 1.98116 0.0533664 -0.12611 0.99058
-4.25005 -6.49247 0.950246 -0.48193 -0.736208 0.475123
1.74167 -7.79689 0.209016 0.216814 -0.970603 0.104508
0.380462 -4.26517 -1.02412 -0.076317 0.855552 -0.512061
-2.15976 -7.00191 -1.49597 -0.19563 -0.634231 -0.747984
7.09537 -3.51134 0.57127 0.858916 -0.425059 0.285635
1.06767 5.88774 1.99993 -0.00144884 -0.00798973 0.999967
0.877018 -7.09864 -1.63447 0.0706636 -0.571955 -0.817235
-6.17122 4.7986 0.835074 -0.717322 0.557774 0.417537
-4.77163 5.49538 1.53851 -0.418913 0.482454 0.769253
-6.89081 1.09663 1.74484 -0.482686 0.0768166 0.872418
6.18447 4.57342 -1.06667 0.680135 0.50296 -0.533337
-4.82986 0.574899 -1.64602 0.564043 -0.0671381 -0.823012
7.83689 -1.60325 0.0565291 0.979317 -0.200346 0.0282646
2.35934 -5.04809 1.95372 -0.090563 0.19377 0.976858
2.58527 -3.85754 1.46987 -0.377533 0.563326 0.734937
0.469827 6.90994 -1.77277 0.0314045 0.461879 -0.886387
-0.247263 4.67835 -1.5068 0.0347053 -0.656643 -0.753402
-1.73178 -3.60574 -0.0153033 0.432927 0.901397 -0.00765167
-5.80701 1.46321 -1.99997 0.00556936 -0.00140333 -0.999984
1.43936 3.79575 -0.484183 -0.344018 -0.907217 -0.242092
-3.87978 -6.65511 -1.04797 -0.428965 -0.735817 -0.523987
-4.63912 -6.42064 0.555728 -0.562593 -0.77864 0.277864
-7.65258 2.33113 0.0312523 -0.956484 0.291365 0.0156261
4.87805 0.630647 1.68246 -0.536215 -0.0693232 0.84123
1.59551 5.31246 -1.94799 -0.0651682 -0.216986 -0.973997
1.5001 -5.89296 -1.99836 0.00997796 -0.0391972 -0.999182
4.23816 2.84351 -1.78791 -0.372158 -0.249693 -0.893953
3.6289 5.79656 1.81561 0.222546 0.35548 0.907803
1.73849 7.52786 1.01042 0.19419 0.840865 0.505209
-4.47061 -3.97186 -1.9999 0.00742558 0.00659718 -0.999951
-0.920136 -6.56246 1.89929 -0.0435064 -0.31029 0.949646
7.63064 -2.38837 -0.131367 0.952284 -0.298062 -0.0656837
-2.34023 7.62584 0.303454 -0.289981 0.944929 0.151727
-7.06671 -1.77915 -1.5307 -0.624139 -0.157136 -0.765349
2.77438 -6.59551 -1.63259 0.223972 -0.532447 -0.816294
4.31177 -1.19597 -1.29346 -0.73497 0.20386 -0.646731
-2.39135 -3.20716 0.0469022 0.597591 0.801458 0.0234511
-0.587501 -4.91244 1.70063 0.0624942 0.522551 0.850315
2.23009 -6.56792 1.76735 0.150501 -0.443246 0.883675
-5.92911 -1.23415 1.99921 -0.0275051 -0.00572522 0.999605
-5.94586 -2.65031 1.93394 -0.232816 -0.103775 0.966968
-1.25204 -6.88776 1.73168 -0.0894802 -0.492251 0.865842
-0.526939 4.55821 -1.41699 0.0810426 -0.701048 -0.708494
6.24386 4.02942 -1.39708 0.601244 0.388008 -0.698538
2.43885 -4.05666 -1.54776 -0.326324 0.542791 -0.77388
-6.4764 1.00345 -1.92183 -0.273575 0.0423874 -0.960916
-3.45973 -7.09822 -0.635109 -0.415458 -0.852381 -0.317555
3.43927 -6.51995 1.45572 0.319937 -0.606515 0.72786
5.22864 5.18046 -1.46603 0.483205 0.478753 -0.733013
-6.31673 -0.507764 1.97139 -0.168009 -0.0135052 0.985693
-6.8914 -2.60057 1.46106 -0.638903 -0.2411 0.73053
0.890383 4.76649 -1.63556 -0.105681 -0.565745 -0.81778
4.83312 2.63492 -1.9377 -0.217431 -0.118539 -0.968851
5.82908 -1.52099 1.99985 0.0117336 -0.00306165 0.999926
2.70363 2.94933 0.0639536 -0.67539 -0.736767 0.0319768
-3.11549 7.17815 -0.817951 -0.363322 0.8371 -0.408975
-2.70816 5.90109 -1.93833 -0.102782 0.223961 -0.969163
6.33926 -3.31471 -1.6338 0.511126 -0.267261 -0.816898
4.13205 3.90151 1.97471 -0.115273 -0.108842 0.987353
5.86429 -5.35477 -0.481187 0.716767 -0.654492 -0.240593
6.99996 -2.77893 -1.28641 0.711666 -0.282526 -0.643203
-3.72289 4.31733 -1.97749 0.097692 -0.113291 -0.988747
7.15526 1.03595 1.57716 0.608584 0.0881119 0.788582
-6.23654 -0.0889851 -1.98589 -0.118577 -0.00169189 -0.992943
-5.02404 -0.977699 -1.79515 0.43274 0.0842131 -0.897577
0.0257408 5.414 -1.91224 -0.00139291 -0.292968 -0.956121
6.23128 0.947379 -1.97693 0.149724 0.0227635 -0.988466
-3.42733 -5.12303 -1.99328 -0.04553 -0.0680564 -0.996642
-5.51092 4.46432 -1.67539 -0.424367 0.343774 -0.837695
-2.82108 3.793 1.54262 0.379832 -0.510691 0.771312
-3.13492 2.57091 0.462845 0.752243 -0.616907 0.231422
3.01605 7.19006 0.87791 0.347562 0.828565 0.438955
-7.60589 1.79935 0.838294 -0.883531 0.20902 0.419147
-6.7557 0.865212 -1.82824 -0.402157 0.0515048 -0.914121
0.971384 -7.85364 -0.581868 0.117441 -0.949508 -0.290934
-4.8253 -0.130535 1.61995 0.586253 0.0158594 0.809973
5.80536 -2.21712 1.98848 0.100112 -0.0382336 0.994241
-4.59556 6.33859 0.808645 -0.536856 0.740479 0.404322
4.021 -0.338357 -0.37362 -0.978936 0.0823752 -0.18681
-0.540857 7.61941 1.14675 -0.0580108 0.817237 0.573375
-2.897 -3.86634 -1.62299 0.350405 0.46765 -0.811493
2.16858 6.15774 1.92892 0.087767 0.249218 0.964462
1.70128 3.99461 -1.11821 -0.324872 -0.762798 -0.559105
-4.06265 -1.45214 -1.07642 0.793638 0.283675 -0.538208
4.48696 -6.58756 0.342279 0.554641 -0.8143 0.171139
-4.35781 3.82314 -1.98969 0.076244 -0.0668895 -0.994843
0.62103 6.43575 -1.94504 0.0223626 0.231745 -0.97252
0.866505 -4.8416 1.68238 -0.0952627 0.53228 0.841191
5.99325 -4.77675 1.1096 0.650615 -0.518554 0.5548
-5.70802 5.50662 -0.519963 -0.694942 0.670421 -0.259982
3.15265 -7.28512 -0.494025 0.384851 -0.889311 -0.247012
-5.186 1.75896 -1.93018 0.248031 -0.084126 -0.965092
2.00002 3.47649 0.207048 -0.495987 -0.862137 0.103524
1.8426 -5.97637 1.98381 0.037414 -0.12135 0.991904
1.88892 -7.76899 -0.136672 0.235701 -0.96942 -0.0683361
-3.23747 -2.41387 0.389582 0.786332 0.586293 0.194791
-1.56794 5.90441 -1.99703 -0.0139951 0.0527016 -0.998512
2.10328 -3.41532 -0.209512 -0.521491 0.846802 -0.104756
2.44971 3.1648 0.0922388 -0.61145 -0.789938 0.0461194
-0.576237 -6.82081 1.81267 -0.0355717 -0.421055 0.906337
5.17675 2.95246 1.99959 -0.0175857 -0.0100296 0.999795
-1.78846 -5.82539 -1.9978 -0.0137567 -0.0448084 -0.998901
1.77279 -3.58588 -0.025859 -0.443143 0.896358 -0.0129295
-6.81309 -0.126342 -1.82674 -0.407061 -0.00754856 -0.91337
6.24433 4.1914 -1.29914 0.631276 0.423734 -0.64957
-4.28213 -0.186984 -1.03099 0.856078 0.0373815 -0.515494
-7.67531 -1.31706 0.897141 -0.880873 -0.151154 0.448571
-2.46745 3.37719 0.834788 0.536094 -0.733748 0.417394
3.55755 7.04789 -0.639899 0.426929 0.845792 -0.319949
3.59058 -4.01709 -1.90403 -0.203963 0.228191 -0.952013
7.42285 -1.49329 1.237 0.77035 -0.154975 0.618501
4.75139 -5.34857 1.63333 0.383282 -0.431456 0.816664
-1.7724 6.64512 1.79725 -0.113063 0.423896 0.898626
-5.45912 1.7065 1.98025 0.1338 -0.0418252 0.990125
6.63597 1.71542 -1.80845 0.413464 0.106882 -0.904226
-5.14259 -5.49161 1.29566 -0.520703 -0.556043 0.64783
-1.98294 5.22831 -1.95788 0.0723939 -0.190877 -0.978941
-5.14483 -1.90095 -1.9325 0.241641 0.0892834 -0.96625
4.47942 -2.87528 -1.88187 -0.284938 0.182898 -0.940935
-6.18388 -1.58707 -1.96273 -0.186112 -0.0477652 -0.981367
-3.68754 -2.66826 1.37924 0.586692 0.424523 0.689618
0.142133 3.99797 0.0447339 -0.03552 -0.999119 0.022367
1.25342 6.74346 -1.80615 0.0784843 0.422249 -0.903076
6.72029 3.96863 0.862157 0.776951 0.458824 0.431079
1.44143 7.42516 -1.24684 0.149005 0.767559 -0.623419
4.58668 -6.27956 0.919149 0.52385 -0.717197 0.459575
4.66429 -2.98881 1.94632 -0.193766 0.124163 0.973159
-6.76702 -3.94989 0.794448 -0.792583 -0.462629 0.397224
2.5012 7.5837 0.240249 0.310949 0.942805 0.120124
-4.92872 -3.39681 1.99995 0.00581836 0.00400993 0.999975
-1.97816 7.64935 -0.621484 -0.237974 0.920222 -0.310742
6.21014 1.64126 -1.95468 0.204655 0.0540874 -0.977339
-4.29154 -0.898201 1.17909 0.790604 0.16547 0.589547
2.89048 -3.29961 1.18192 -0.531561 0.606801 0.590962
1.60779 4.62573 1.66847 -0.181033 -0.520847 0.834234
-7.91467 0.197898 0.569703 -0.958272 0.0239605 0.284852
-2.05939 3.44356 0.222223 0.51008 -0.85292 0.111112
5.04384 -0.538587 -1.77194 -0.46112 0.0492389 -0.885971
-4.97387 -1.95063 -1.8889 0.305968 0.119993 -0.94445
0.353154 -7.96497 0.32875 0.0436923 -0.98543 0.164375
7.85574 -0.373988 0.723271 0.931265 -0.0443347 0.361635
7.51668 0.618493 -1.27357 0.768443 0.0632296 -0.636786
6.36367 0.408192 -1.9642 0.187986 0.0120582 -0.982098
7.7162 2.10667 -0.0745198 0.964023 0.263196 -0.0372599
7.02956 -3.76979 0.305081 0.87096 -0.467076 0.15254
-4.91389 -6.3094 0.106258 -0.613585 -0.787839 0.053129
-7.07243 -2.66589 1.25381 -0.729023 -0.274799 0.626906
-0.00442326 7.95165 0.437106 -0.000542822 0.975825 0.218553
6.64444 4.43111 0.232505 0.826324 0.551067 0.116252
1.88901 -4.94371 1.87061 -0.126299 0.330535 0.935305
3.19211 -5.62946 -1.94363 0.116287 -0.205078 -0.971813
-4.85872 -6.31084 -0.374975 -0.599226 -0.778316 -0.187488
-3.03254 4.9325 1.98896 0.0549535 -0.0893834 0.99448
-4.3681 0.231244 -1.16483 0.811755 -0.0429737 -0.582415
5.85345 5.23069 -0.759865 0.689746 0.616362 -0.379933
3.42992 6.40816 -1.54639 0.299264 0.559119 -0.773193
2.9943 3.04991 1.01055 -0.604565 -0.615792 0.505274
-2.19128 5.99346 -1.96328 -0.0654964 0.179142 -0.981641
-7.38022 -1.09995 1.36503 -0.722886 -0.10774 0.682516
-6.0365 -5.24922 -0.0400361 -0.754449 -0.656053 -0.0200181
3.5494 -3.23647 1.60257 -0.442088 0.403112 0.801286
-2.70328 -7.50187 0.321015 -0.334613 -0.928586 0.160507
-3.01229 5.45893 -1.98616 -0.056741 0.102827 -0.99308
1.49406 -5.64243 1.99334 -0.0208759 0.0788397 0.996669
-5.98479 -1.30353 1.99608 -0.0611178 -0.0133119 0.998042
-5.88504 -4.75194 1.24652 -0.608431 -0.491284 0.623259
4.90785 5.90272 1.09052 0.53593 0.644568 0.545262
1.46691 -4.94226 1.8129 -0.120167 0.40486 0.906448
-6.26107 -2.75139 -1.81554 -0.384026 -0.168758 -0.907769
-5.19963 1.25823 1.89133 0.316028 -0.0764737 0.945663
1.18917 -6.16825 -1.98004 0.0266764 -0.138371 -0.990021
-6.55537 4.57811 -0.130343 -0.818114 0.571351 -0.0651714
-0.262959 6.59479 -1.90787 -0.0119533 0.299778 -0.953934
-5.80296 0.121633 -1.9904 0.0978629 -0.00205126 -0.995198
7.9128 0.404808 0.549103 0.960317 0.0491285 0.274552
-6.53294 -2.14376 -1.7981 -0.416017 -0.136515 -0.899052
-3.71862 2.04986 0.961309 0.76796 -0.423331 0.480654
-2.03381 7.22343 1.318 -0.203846 0.723993 0.659
-7.46858 -2.80795 0.289129 -0.926198 -0.348221 0.144565
