# x y Mean_Curvature nx ny
-6.48722 3.36311 -1.51372 -0.58024 0.300808 -0.756859
5.38101 -1.66625 -1.96606 -0.175248 0.054266 -0.983028
4.82384 2.35457 -1.89746 -0.284059 -0.138652 -0.948728
-1.89538 -5.95964 1.98383 -0.0384585 -0.120925 0.991916
5.34987 1.80779 1.96861 -0.167188 -0.0564949 0.984305
5.14203 -5.09128 -1.57225 0.439202 -0.434867 -0.786125
-1.27075 3.94722 -0.751922 0.283964 -0.882053 -0.375961
7.94102 -0.516484 0.408691 0.976835 -0.0635334 0.204345
-1.95495 -7.71938 -0.382525 -0.240969 -0.9515 -0.191263
-4.90745 2.90285 1.97763 0.128363 -0.0759289 0.988816
4.16915 -3.37457 -1.89609 -0.247286 0.200157 -0.948044
-5.98435 -5.2224 -0.475431 -0.731846 -0.638665 -0.237715
6.99963 0.697425 1.71179 0.514599 0.0512733 0.855897
-5.79245 -3.59811 -1.82461 -0.347857 -0.216079 -0.912308
4.06979 0.722639 -0.71833 -0.918901 -0.163161 -0.359165
-2.82097 -6.16511 1.84169 -0.162241 -0.35457 0.920846
-7.80853 -1.43243 -0.490878 -0.953501 -0.174914 -0.245439
-3.5332 -2.74245 -1.29119 0.603275 0.468259 -0.645595
1.54728 3.6895 0.0570416 -0.386585 -0.921813 0.0285208
-1.22988 -7.88382 0.287887 -0.152531 -0.97776 0.143944
7.07249 0.493361 1.67708 0.543516 0.0379145 0.838542
-1.99858 -3.57571 -0.613256 0.464392 0.830854 -0.306628
-0.386476 5.90096 -1.99813 0.00282309 -0.0431048 -0.999067
5.94113 2.37669 -1.95982 0.185172 0.0740761 -0.97991
-6.65876 -3.79079 1.11226 -0.722255 -0.411175 0.556132
3.10887 3.61724 -1.57677 -0.400977 -0.466545 -0.788387
-2.02513 5.14145 -1.943 0.0868718 -0.220552 -0.971499
7.24835 -3.35982 -0.207813 0.90236 -0.41827 -0.103907
-5.03538 4.49245 1.85481 -0.279119 0.249024 0.927405
-5.99769 3.32308 -1.8072 -0.374709 0.207612 -0.903599
0.874098 7.9086 -0.413654 0.107481 0.972456 -0.206827
-5.29426 -1.51454 1.93819 0.23717 0.0678479 0.969096
-3.31312 4.83181 1.99499 0.0399829 -0.0583106 0.997497
7.32923 -1.70087 1.29515 0.742274 -0.172257 0.647577
2.83329 -7.26335 -0.879189 0.326414 -0.836786 -0.439594
-5.64804 4.04649 -1.76106 -0.385308 0.276051 -0.88053
-2.93948 7.43242 0.172094 -0.366412 0.926465 0.0860469
0.786979 6.48243 1.92849 0.0319386 0.263081 0.964245
-4.68844 -1.94247 -1.77319 0.427321 0.177044 -0.886596
-2.80243 6.17784 1.84004 -0.161887 0.356874 0.920018
3.10515 -4.18053 -1.83631 -0.236255 0.318075 -0.918157
2.31062 6.32301 1.86124 0.125618 0.343754 0.93062
7.50577 -1.11524 -1.21561 0.785463 -0.116708 -0.607805
4.4944 -2.69021 1.84916 -0.326901 0.195673 0.92458
1.88058 6.09189 -1.96442 0.055388 0.179422 -0.982212
0.807682 -7.95717 0.0881426 0.100887 -0.993921 0.0440713
-3.9384 -2.75536 -1.6049 0.48894 0.342069 -0.80245
0.410443 -5.12115 -1.8045 -0.0344499 0.429836 -0.902249
-2.32133 -3.58315 -1.00246 0.470486 0.726232 -0.501229
4.94689 -2.94919 1.98546 -0.103377 0.06163 0.992731
1.67384 -3.6811 0.416234 -0.404865 0.890377 0.208117
-5.17136 5.22623 -1.47352 -0.475582 0.480628 -0.736762
5.09272 -0.135806 1.78329 -0.452576 0.0120687 0.891644
-5.93289 -2.13509 1.97655 -0.143667 -0.0517018 0.988275
6.74048 -3.36015 1.28618 0.685352 -0.34165 0.643092
-1.12297 3.85414 -0.239603 0.277721 -0.953163 -0.119801
-0.343745 4.71037 -1.53916 0.0464757 -0.63686 -0.769578
2.73918 -6.23163 -1.82992 0.162386 -0.369427 -0.914962
4.01248 -0.909562 -0.666379 -0.919531 0.208442 -0.333189
7.55968 1.57655 -1.01666 0.843026 0.175811 -0.508329
1.211 -7.50289 -1.20002 0.127473 -0.789772 -0.600009
-3.2496 6.86265 -1.20908 -0.340906 0.719939 -0.604541
7.01377 -1.67202 -1.59221 0.588663 -0.140332 -0.796105
-6.22043 4.41931 1.15826 -0.664587 0.472157 0.579131
-0.480661 6.91317 1.7707 -0.0322479 0.46381 0.885348
6.90059 0.0958966 -1.78542 0.450585 0.00626171 -0.892712
2.90666 -6.76899 -1.46021 0.269624 -0.627896 -0.730103
6.41072 -4.35105 -0.972141 0.723099 -0.490778 -0.486071
-2.87743 -7.41735 0.417597 -0.3537 -0.911756 0.208799
-4.08137 -4.15021 1.99196 0.0628211 0.0638808 0.995978
4.95912 -2.41289 1.9403 -0.21807 0.106103 0.970148
3.9975 -1.20932 0.821317 -0.872728 0.264017 0.410658
-0.792935 -4.63154 -1.51895 0.109777 0.641207 -0.759475
-4.16544 -0.75822 -0.938526 0.868783 0.158142 -0.469263
-2.05042 -4.99266 1.90703 0.114482 0.278757 0.953514
4.07379 -6.33803 -1.28288 0.414806 -0.645359 -0.641442
-2.23366 7.47018 0.877999 -0.257396 0.860829 0.438999
-4.34365 6.36784 -1.04018 -0.481299 0.705591 -0.520089
7.21896 3.22066 0.609679 0.869769 0.388039 0.30484
3.20859 -6.4915 -1.56827 0.274986 -0.55634 -0.784135
-3.02367 -5.5295 -1.97703 -0.0724985 -0.132581 -0.988517
-2.23468 -4.76972 1.86094 0.155436 0.331763 0.930469
-5.93282 -0.224544 -1.99901 0.0314435 0.00119007 -0.999505
1.9737 4.05797 -1.33691 -0.325307 -0.668839 -0.668454
6.66676 1.13913 1.84858 0.376238 0.0642864 0.92429
-1.8158 7.26249 1.33853 -0.180227 0.720836 0.669264
-5.07288 -1.33074 -1.85182 0.365378 0.0958477 -0.925912
6.29867 -4.84039 -0.471133 0.770599 -0.592188 -0.235567
-4.39354 -6.63227 0.419483 -0.539979 -0.815126 0.209742
-4.35127 -1.28674 -1.36426 0.701212 0.207359 -0.682132
5.56331 0.897887 1.96647 -0.18002 -0.0290542 0.983234
5.76487 -3.89371 -1.75637 0.396375 -0.26772 -0.878187
-6.78353 -2.92825 -1.43941 -0.637428 -0.275159 -0.719703
-3.12071 -7.36091 0.13973 -0.389373 -0.918427 0.0698649
-7.33127 2.85255 -0.718003 -0.869814 0.338439 -0.359002
1.72569 6.7087 1.77214 0.11548 0.448933 0.886072
-0.679653 -4.91778 -1.71108 0.0708798 0.512866 -0.855538
-7.71107 0.575975 -0.999131 -0.86387 0.0645263 -0.499565
7.26517 -1.531 1.40362 0.697056 -0.146892 0.701809
-4.69734 5.05354 -1.7863 -0.306205 0.329425 -0.893151
1.21321 -7.90727 0.0285918 0.15164 -0.988332 0.0142959
1.64041 5.24328 -1.93491 -0.0755582 -0.241508 -0.967453
-0.757201 5.10841 1.817 0.0612729 -0.413373 0.908498
-5.47596 5.4742 0.980913 -0.616318 0.61612 0.490457
1.86549 -3.55028 -0.205157 -0.462692 0.880564 -0.102578
-1.9854 7.53609 0.885618 -0.228421 0.867032 0.442809
4.89883 3.93987 -1.97936 0.111657 0.0898001 -0.989681
-2.41174 -3.39832 0.800388 0.530386 0.747352 0.400194
4.12471 3.78088 1.95864 -0.149136 -0.136704 0.979321
-7.40876 2.16497 1.02294 -0.824806 0.241023 0.511472
5.52996 5.34365 -1.06964 0.60763 0.587159 -0.534819
3.9228 -1.67907 -0.998424 -0.796577 0.340958 -0.499212
-1.7161 4.56252 -1.65331 0.198101 -0.526683 -0.826656
-5.68598 5.4647 0.664809 -0.679999 0.653535 0.332404
6.2906 4.94042 -0.0716924 0.785946 0.617255 -0.0358462
4.89708 -0.276325 1.67353 -0.546694 0.0308479 0.836764
-4.20595 -3.7702 -1.96885 0.130904 0.117342 -0.984426
6.44536 -2.14659 -1.83589 0.376382 -0.125352 -0.917945
-2.18105 -4.50417 1.73461 0.21694 0.448012 0.867307
6.21148 -1.43519 1.9645 0.18275 -0.0422252 0.982252
-3.69426 -1.57433 -0.250293 0.912715 0.388959 -0.125147
1.12989 -3.92372 -0.570736 -0.265212 0.920993 -0.285368
2.6094 6.30969 1.82057 0.15821 0.382561 0.910284
1.18881 -7.74273 -0.799004 0.139123 -0.906114 -0.399502
-5.8933 3.06266 1.89429 -0.284656 0.147931 0.947147
-1.95196 7.6826 0.536513 -0.237226 0.933682 0.268256
-5.00298 5.35345 1.49609 -0.45313 0.484873 0.748045
-0.343465 -3.98666 -0.0756898 0.085774 0.995596 -0.0378449
-6.11448 -1.79311 -1.96511 -0.178472 -0.0523381 -0.982552
-3.3121 2.24978 0.125404 0.825583 -0.560787 0.062702
1.41744 3.78514 0.406916 -0.343358 -0.916902 0.203458
-3.81928 6.71648 1.00963 -0.426704 0.750389 0.504817
-3.85053 -2.97619 1.64789 0.448356 0.346548 0.823943
-2.9223 -2.7315 -0.0214654 0.730512 0.682815 -0.0107327
3.88108 -1.39967 -0.698002 -0.881546 0.317922 -0.349001
-4.33645 -0.0278479 1.11036 0.831714 0.00534112 0.555178
-6.19163 4.85695 0.711073 -0.735398 0.576874 0.355537
-7.60588 2.46894 -0.117098 -0.949511 0.308221 -0.058549
4.41955 6.36739 -0.966663 0.499174 0.719177 -0.483332
1.73865 3.91063 1.0201 -0.349436 -0.785965 0.510052
-2.79064 7.02196 1.25632 -0.287361 0.723074 0.628162
-5.09645 5.13098 -1.57555 -0.434078 0.437018 -0.787776
6.37836 -0.615991 1.95794 0.203071 -0.0196116 0.978968
-2.25565 3.34277 0.359787 0.550224 -0.815409 0.179894
-5.68348 -3.29693 1.9169 -0.246746 -0.143135 0.958451
0.166132 4.0956 -0.621349 -0.0385247 -0.949735 -0.310675
-2.9564 2.73817 0.342983 0.722797 -0.669444 0.171491
-2.8822 -4.61974 -1.92148 0.14686 0.235395 -0.96074
0.394652 7.5539 -1.24631 0.040805 0.781035 -0.623153
2.39532 -7.19786 -1.2185 0.250389 -0.752408 -0.609252
6.40501 -1.95027 1.87523 0.332599 -0.101274 0.937615
1.71163 -6.80581 -1.72168 0.124114 -0.493504 -0.860842
0.363881 5.4188 -1.91735 -0.0190615 -0.283857 -0.958677
-6.25361 1.69799 -1.94154 -0.231628 0.062892 -0.970769
7.81973 1.30973 0.529413 0.951081 0.159297 0.264706
-4.34576 4.82698 -1.93777 -0.165609 0.183947 -0.968884
-5.40213 -1.20672 1.94526 0.226779 0.0506576 0.972628
-6.04886 2.48778 1.92559 -0.249923 0.102788 0.962794
2.77559 -3.19231 -0.931594 -0.580607 0.667779 -0.465797
7.44635 -0.241969 -1.3772 0.724758 -0.023551 -0.688601
4.79603 2.62364 -1.9276 -0.233911 -0.127959 -0.963801
6.32521 -1.68346 1.9242 0.26353 -0.0701387 0.962098
-4.36094 -3.13509 -1.89848 0.2554 0.183607 -0.949241
7.98667 -0.256725 0.191691 0.994882 -0.0319797 0.0958453
6.09976 2.09697 -1.94868 0.212844 0.0731714 -0.974342
-2.02682 -3.4709 -0.277496 0.499389 0.855195 -0.138748
-2.42858 6.44466 -1.79252 -0.156402 0.415041 -0.896259
3.81017 -7.01329 -0.271691 0.472953 -0.870552 -0.135845
5.08132 0.49214 1.78861 -0.44537 -0.0431354 0.894307
-4.77863 -6.30795 0.581397 -0.577771 -0.762676 0.290699
-1.9173 -7.40167 -1.13613 -0.206371 -0.796688 -0.568066
5.43342 1.351 1.95936 -0.194642 -0.0483969 0.97968
2.52839 3.16996 0.464962 -0.606471 -0.760359 0.232481
-4.78113 0.02395 -1.58572 0.609399 -0.00305265 -0.792858
-3.32575 2.26822 -0.318953 0.815578 -0.556238 -0.159477
-3.75309 -2.0532 -1.01722 0.755353 0.41323 -0.508609
-1.15425 4.58805 -1.54585 0.154801 -0.615322 -0.772927
-6.44874 -0.587743 -1.94266 -0.236752 -0.0215778 -0.97133
-0.0524004 -4.04413 0.419389 0.012668 0.977685 0.209694
-4.82862 -1.73204 -1.8008 0.409517 0.146895 -0.900399
2.69591 5.016 -1.97654 -0.0722954 -0.134512 -0.988271
0.495514 -7.95687 0.331795 0.0612933 -0.984236 0.165897
-2.22103 6.47311 1.8134 -0.136884 0.398944 0.906701
5.96279 1.71728 1.98945 0.0985714 0.0283885 0.994725
3.47905 2.01142 -0.272543 -0.857649 -0.495851 -0.136272
-6.55022 -0.452745 1.91828 -0.282253 -0.019509 0.959142
-2.78817 2.91649 0.371605 0.678994 -0.710242 0.185802
3.25014 3.57635 1.62391 -0.392578 -0.431982 0.811957
-3.09739 -7.1483 -0.891112 -0.355939 -0.821454 -0.445556
-7.90661 -0.774108 -0.468262 -0.967579 -0.0947322 -0.234131
3.10021 -6.95811 1.17629 0.329151 -0.738747 0.588144
-3.51735 -6.64942 -1.29703 -0.355925 -0.672862 -0.648517
3.72138 2.63311 -1.38662 -0.588274 -0.416241 -0.693309
5.08336 -6.01269 -0.699828 0.604809 -0.715379 -0.349914
-3.92727 -3.11773 -1.74026 0.385984 0.306419 -0.870129
-4.06059 -0.962737 -0.81403 0.888782 0.210724 -0.407015
7.19387 -3.33801 0.522351 0.875621 -0.406295 0.261176
-4.0683 4.53883 -1.99773 -0.0317875 0.0354639 -0.998865
5.2852 -1.82143 1.95758 -0.193692 0.0667517 0.978789
-1.18555 -3.85145 -0.343924 0.289814 0.941508 -0.171962
4.89236 -5.94617 -1.05333 0.540102 -0.656439 -0.526667
3.4665 -7.13712 0.507911 0.422571 -0.870023 0.253955
-7.91086 0.0599465 -0.589713 -0.955514 0.00724065 -0.294856
-0.215234 -7.58302 1.21835 -0.0225002 -0.792718 0.609173
-2.7094 -3.13335 0.740939 0.607537 0.702603 0.37047
3.18688 6.39317 1.64089 0.255061 0.511676 0.820446
-5.14277 -4.7452 -1.73349 -0.366554 -0.338216 -0.866746
4.23615 1.45035 1.29697 -0.720185 -0.246573 0.648487
3.20638 3.0237 1.20958 -0.579394 -0.546382 0.604789
3.75827 -1.53977 -0.49201 -0.896911 0.367467 -0.246005
0.710098 6.90098 1.7667 0.0479761 0.466249 0.883352
6.79378 -3.8781 0.823199 0.79149 -0.451807 0.411599
-1.82731 4.34428 -1.53085 0.249509 -0.593187 -0.765424
-7.8645 1.39652 0.223021 -0.978457 0.173748 0.111511
-0.723707 7.73096 0.94108 -0.0822413 0.878538 0.47054
4.32522 3.86132 1.98978 -0.0753297 -0.0672503 0.994888
1.37717 5.71023 1.99602 -0.014776 -0.0612667 0.998012
-5.47591 -5.6378 -0.736595 -0.647758 -0.666908 -0.368298
2.32432 -6.64142 -1.71052 0.171175 -0.48911 -0.85526
-4.57634 0.0562645 -1.40505 0.711605 -0.00874893 -0.702526
-6.034 -0.717323 -1.99854 -0.0379743 -0.00451439 -0.999269
2.26473 3.44708 0.69456 -0.514919 -0.783744 0.34728
-1.39109 7.62681 -0.963465 -0.157242 0.862096 -0.481733
-5.66876 2.89797 -1.96612 -0.163193 0.0834269 -0.983061
-3.1455 3.05535 -1.17991 0.579182 -0.562582 -0.589957
-7.04502 1.89217 -1.52439 -0.625191 0.167915 -0.762195
1.69666 -5.34211 -1.96062 -0.0597735 0.188203 -0.98031
-2.75331 5.37951 1.99953 -0.00983452 0.019215 0.999767
-7.12726 -1.94152 1.44094 -0.669105 -0.182269 0.720469
-2.51885 7.44095 0.745847 -0.297509 0.878872 0.372923
-2.31351 3.32621 0.451655 0.556251 -0.799741 0.225828
3.87412 -1.97877 -1.13057 -0.734618 0.375217 -0.565286
3.91413 -3.6758 1.89803 -0.229787 0.215796 0.949015
-7.47609 2.59411 0.582255 -0.90382 0.313615 0.291128
2.75269 7.4663 0.409778 0.338582 0.918359 0.204889
-2.82732 7.48372 -0.00768966 -0.353413 0.935459 -0.00384483
6.18536 -0.253572 1.9909 0.0952002 -0.00390278 0.99545
-4.20799 -4.82699 -1.95884 -0.132629 -0.152139 -0.97942
-1.03447 6.09112 -1.99203 -0.0149305 0.0879129 -0.996016
7.14295 1.23994 1.56143 0.61568 0.106875 0.780715
3.40392 -5.71274 -1.89144 0.166349 -0.279181 -0.94572
-6.14544 5.1169 -0.112714 -0.767264 0.63885 -0.0563569
-3.76492 -1.36894 0.155692 0.936951 0.34068 0.0778461
3.69053 7.0845 -0.217612 0.459259 0.881613 -0.108806
2.13831 -7.68271 -0.316896 0.264749 -0.951211 -0.158448
2.06063 7.72563 -0.130734 0.257165 0.964154 -0.0653671
7.68714 -0.668428 1.02706 0.854847 -0.0743324 0.513529
-6.49949 -2.42378 1.76708 -0.438838 -0.163651 0.883538
6.59225 3.32581 -1.4441 0.617685 0.311624 -0.72205
-6.06206 5.17455 0.343778 -0.749268 0.639572 0.171889
-6.13562 4.91658 -0.728817 -0.726709 0.582324 -0.364408
6.36536 4.80542 -0.311603 0.78836 0.595159 -0.155801
6.37083 3.89022 1.36189 0.62502 0.381656 0.680947
4.6632 6.34045 0.707636 0.554157 0.753474 0.353818
7.82371 0.0801332 0.820114 0.912012 0.00934115 0.410057
-5.40757 5.69082 0.759207 -0.637276 0.670657 0.379603
3.17983 -2.90752 -1.06749 -0.624087 0.570642 -0.533744
-3.58975 5.80473 -1.8219 -0.216972 0.35085 -0.910949
5.01501 4.87237 1.73655 0.355805 0.345686 0.868276
1.50413 -7.49281 -1.14143 0.161616 -0.805086 -0.570716
-1.05366 7.74022 0.847407 -0.122178 0.897523 0.423704
5.20431 -6.02785 0.379554 0.641632 -0.743164 0.189777
-2.30347 -3.37263 0.574179 0.540255 0.791015 0.287089
2.58576 -7.4549 0.652397 0.309776 -0.893103 0.326198
-3.51276 -3.4074 -1.66627 0.396989 0.385081 -0.833134
-7.33516 -2.88223 0.679288 -0.8754 -0.343973 0.339644
4.07227 0.844209 0.781132 -0.901409 -0.186868 0.390566
7.17524 -1.72442 1.44805 0.670678 -0.161184 0.724024
-4.69693 0.886189 -1.58465 0.599521 -0.113114 -0.792326
5.52186 4.76962 -1.52278 0.49061 0.423775 -0.761391
-6.61808 1.70409 1.81784 -0.403804 0.103975 0.908918
7.18592 3.45885 0.315017 0.889805 0.428297 0.157509
0.325653 -4.17509 0.84606 -0.0704622 0.903372 0.42303
2.78761 -2.86924 0.0406105 -0.696687 0.717088 0.0203052
-6.8096 0.0082948 1.82881 -0.404802 0.00049309 0.914404
3.37277 -2.82109 1.19607 -0.614769 0.514211 0.598035
-4.0044 -0.263038 -0.227927 0.991348 0.065119 -0.113964
-2.32088 -3.28426 0.292835 0.570892 0.807864 0.146418
-3.66986 1.63979 -0.278949 0.904079 -0.403965 -0.139475
-2.05249 -7.55849 -0.801873 -0.240073 -0.88409 -0.400936
-0.101438 -4.93142 1.69126 0.0109772 0.533657 0.84563
2.12055 4.27645 -1.57965 -0.272471 -0.549484 -0.789827
-5.91731 -0.407693 1.99882 0.0342502 0.00235978 0.999411
0.720947 -4.24368 1.06077 -0.141988 0.835781 0.530387
-3.03513 -2.9043 -0.87349 0.649956 0.621941 -0.436745
0.661255 5.51363 -1.94944 -0.0266052 -0.221838 -0.974721
-6.5457 -3.06929 1.57739 -0.556633 -0.261006 0.788693
-5.34386 -3.18578 -1.98771 -0.095095 -0.0566916 -0.993853
1.41985 7.70918 0.786553 0.166534 0.904212 0.393277
-7.71309 2.12324 -0.00387544 -0.964135 0.265404 -0.00193772
6.38937 0.162362 -1.96132 0.195651 0.00497172 -0.980661
-7.35732 3.00528 0.45547 -0.901421 0.368208 0.227735
5.10363 2.65501 1.98468 -0.109594 -0.0570131 0.99234
-0.625607 4.38445 -1.23754 0.110968 -0.777695 -0.61877
3.76363 -1.37929 0.183202 -0.934986 0.342653 0.0916011
1.3921 6.5227 -1.88458 0.0698801 0.327424 -0.94229
3.30258 -5.6125 1.93333 0.12985 -0.220671 0.966666
4.03132 4.76449 1.98541 0.0778814 0.0920456 0.992704
-3.93034 3.57407 1.87808 0.25436 -0.231303 0.939042
-5.85576 -3.11864 -1.8967 -0.27999 -0.149116 -0.948351
-4.7711 2.97813 -1.96439 0.159357 -0.0994713 -0.982197
-5.18371 5.8959 0.758371 -0.610982 0.694924 0.379186
3.74583 -1.54493 0.452761 -0.900459 0.371384 0.226381
-7.93577 0.95929 -0.160569 -0.989568 0.119621 -0.0802847
-5.07322 0.0481549 -1.77243 0.463254 -0.0043972 -0.886214
4.51578 -2.14197 1.73091 -0.452646 0.214703 0.865456
3.5857 -2.25229 -0.939474 -0.747564 0.469569 -0.469737
1.56763 -3.7863 0.618345 -0.363795 0.878673 0.309172
4.39276 3.73684 -1.9864 -0.0886691 -0.0754291 -0.993201
-3.92945 5.07309 1.95606 -0.127652 0.164805 0.978031
0.276657 3.99253 -0.0916792 -0.0690553 -0.996559 -0.0458396
1.13512 7.6484 -0.999786 0.127146 0.856704 -0.499893
3.8893 1.35348 0.677018 -0.888689 -0.309264 0.338509
4.08676 -3.20501 -1.83023 -0.317264 0.248812 -0.915115
0.717151 4.66092 1.53322 -0.0976495 -0.634646 0.766609
-7.39487 0.809272 1.38896 -0.71524 0.0782736 0.694482
-1.66246 -4.41454 1.53441 0.226046 0.600248 0.767206
1.04003 -3.92873 -0.502125 -0.247713 0.935738 -0.251062
-6.45903 -1.4212 1.90357 -0.299603 -0.0659226 0.951784
2.08352 -7.67274 0.441771 0.255586 -0.941215 0.220885
2.83371 -5.81155 -1.94505 0.102031 -0.209251 -0.972524
-6.80853 -4.04951 -0.55387 -0.825855 -0.491194 -0.276935
-2.73681 -7.29452 0.89007 -0.314573 -0.838444 0.445035
3.10463 2.52244 0.0271949 -0.776051 -0.630524 0.0135975
2.13147 6.76355 -1.67592 0.164029 0.520496 -0.837961
-1.40327 4.62801 -1.62644 0.168865 -0.556922 -0.813218
-0.845918 -4.16641 -0.970798 0.173961 0.856811 -0.485399
-7.23598 1.60614 -1.41634 -0.689269 0.152994 -0.708168
-3.58979 -4.41671 1.97607 0.0972674 0.119673 0.988037
-0.159293 -6.73471 1.85942 -0.0087087 -0.368194 0.929708
6.04982 0.271765 -1.99922 0.0279336 0.00125481 -0.999609
-4.20638 4.86881 -1.9523 -0.141929 0.164281 -0.97615
0.974596 3.98232 -0.624018 -0.225849 -0.922845 -0.312009
-6.68875 -4.19085 -0.644825 -0.802154 -0.502592 -0.322412
3.71916 3.23046 -1.68733 -0.40532 -0.35206 -0.843664
3.10275 -5.97406 -1.86133 0.168636 -0.324693 -0.930665
-1.65363 7.80901 -0.266446 -0.205318 0.969586 -0.133223
4.06773 -1.93533 -1.32814 -0.675151 0.321222 -0.664069
-0.212575 -5.57487 1.95517 0.00802231 0.210388 0.977585
0.738341 6.38931 -1.95282 0.024786 0.214488 -0.976412
-1.05627 4.38036 -1.32955 0.17512 -0.726227 -0.664776
-4.74912 -1.521 1.72433 0.482488 0.154526 0.862164
-2.45514 3.15993 0.0802146 0.613045 -0.789029 0.0401073
1.61304 -7.79907 0.377063 0.198906 -0.961713 0.188531
-4.9998 5.63605 1.28314 -0.509039 0.573818 0.641571
7.40556 1.85778 -1.15182 0.792943 0.19892 -0.57591
-1.65228 6.99103 -1.61215 -0.136121 0.575946 -0.806075
2.54379 3.09764 -0.181717 -0.63201 -0.769616 -0.0908587
5.0427 -0.852702 -1.79318 -0.43666 0.0738377 -0.896591
1.00719 7.91791 -0.269841 0.125033 0.982936 -0.134921
-4.39491 -0.200449 -1.19931 0.799427 0.0364614 -0.599655
3.28301 7.2744 0.275647 0.407432 0.902776 0.137824
5.84252 4.60579 1.38832 0.565292 0.445633 0.694158
4.13277 1.2387 -1.07647 -0.807311 -0.241972 -0.538237
3.2859 6.54332 1.50074 0.296643 0.590716 0.750372
-0.443957 -6.50804 1.93036 -0.017803 -0.260977 0.965181
2.0728 7.68682 -0.391082 0.25533 0.946874 -0.195541
-5.45202 0.789901 1.93878 0.242989 -0.0352048 0.96939
0.0339334 -4.08152 0.565655 -0.00797418 0.959138 0.282828
7.46595 1.28217 -1.23232 0.776258 0.133311 -0.616158
-5.94727 -3.75223 -1.71317 -0.436409 -0.275338 -0.856584
1.62695 -4.03354 1.12925 -0.30874 0.765427 0.564625
1.26079 4.66613 -1.62456 -0.152144 -0.563078 -0.812278
4.22949 1.60732 1.35026 -0.689581 -0.262059 0.675132
5.95103 -2.63623 -1.9342 0.232601 -0.103039 -0.967099
5.38564 -2.25099 -1.99336 -0.075136 0.0314039 -0.996679
-0.175057 -4.64561 -1.47464 0.025438 0.675066 -0.737319
-0.0426295 -5.19861 1.8325 0.00328492 0.400593 0.91625
0.766184 4.78316 1.63217 -0.0914102 -0.570659 0.816084
-4.82991 4.97199 1.76972 -0.324603 0.334152 0.884859
-0.524956 7.7499 0.935613 -0.0597313 0.88181 0.467806
-2.47928 3.75108 -1.31876 0.414545 -0.627193 -0.659379
-3.92931 0.832127 0.256066 0.970251 -0.205474 0.128033
2.64507 -3.20413 0.771656 -0.587328 0.711465 0.385828
7.9064 0.513395 -0.549423 0.959506 0.0623047 -0.274711
6.49084 0.160548 1.93833 0.246339 0.0060931 0.969165
-4.91985 -2.60089 -1.95213 0.192273 0.101645 -0.976063
7.16796 2.3122 1.28608 0.72885 0.235108 0.643041
-5.62028 0.886756 -1.9758 0.153203 -0.024172 -0.987899
-4.27404 -0.805003 1.12909 0.811141 0.152776 0.564544
7.40502 -0.229212 1.41984 0.703944 -0.0217896 0.709921
3.02832 -2.93653 0.908573 -0.639548 0.620163 0.454286
-4.54363 -6.41839 0.725269 -0.538457 -0.760632 0.362635
0.295795 7.98837 0.156736 0.036889 0.996242 0.0783678
0.484826 4.28413 -1.07186 -0.0949375 -0.838908 -0.53593
2.9351 4.31602 1.8414 -0.219461 -0.322715 0.920702
3.44648 -4.27068 -1.93332 -0.160808 0.199264 -0.966662
5.4609 -0.189556 1.92689 -0.267747 0.00929388 0.963445
6.81364 3.37807 -1.19321 0.71902 0.356476 -0.596603
3.08982 6.13953 -1.79931 0.196271 0.389994 -0.899657
-3.34818 -6.44101 1.55379 -0.290404 -0.558661 0.776893
-3.64238 -2.33782 -1.09759 0.703514 0.451542 -0.548797
-3.07155 7.27822 0.625104 -0.369334 0.875159 0.312552
-4.05577 2.22839 1.45486 0.601386 -0.330423 0.72743
1.75849 3.64089 0.413964 -0.425495 -0.880972 0.206982
0.538754 4.5849 1.44422 -0.0807326 -0.68705 0.722112
-1.63661 4.87162 -1.80527 0.137067 -0.408 -0.902634
-4.95703 2.17777 -1.91232 0.268108 -0.117787 -0.956161
7.57658 -1.08594 1.1244 0.818636 -0.117334 0.5622
6.82233 -3.70718 0.941563 0.775195 -0.421233 0.470781
-3.158 -6.92826 -1.18103 -0.334722 -0.734339 -0.590514
1.11367 -5.17103 1.86958 -0.0747846 0.347242 0.934789
-3.77927 -5.57072 -1.86135 -0.205394 -0.302754 -0.930674
-0.336536 4.09448 0.649179 0.077481 -0.942676 0.324589
-4.84024 5.59724 -1.42848 -0.457807 0.529408 -0.714241
-2.49797 -3.2521 0.626726 0.578471 0.75311 0.313363
-3.55051 -3.86229 1.85254 0.255049 0.277446 0.926269
-5.27831 5.89956 -0.573045 -0.638822 0.714011 -0.286522
7.13241 -2.8852 1.0634 0.785129 -0.3176 0.531698
-6.16724 3.99374 1.47798 -0.565499 0.366202 0.738991
-0.719791 4.23916 -1.05329 0.142304 -0.838089 -0.526646
6.98362 -0.219176 1.73946 0.493288 -0.0154815 0.869728
4.87696 -1.12097 -1.73443 -0.485279 0.111542 -0.867215
4.37659 -3.53743 1.96499 -0.144879 0.117101 0.982496
-2.41859 -7.59017 -0.366169 -0.298475 -0.936692 -0.183085
-4.62695 3.85735 1.99986 -0.00919313 0.00766402 0.999928
-1.77518 -4.94714 -1.85646 0.125643 0.350146 -0.92823
5.80177 5.20747 0.879913 0.6683 0.599844 0.439957
-4.7523 0.106123 1.56403 0.623102 -0.0139145 0.782017
-4.45159 1.74565 1.58605 0.567141 -0.222399 0.793026
1.58536 4.66033 1.685 -0.173492 -0.509997 0.842498
-4.43127 3.7567 1.9909 0.0726995 -0.0616325 0.995448
6.37205 -4.3067 1.06804 0.700485 -0.47344 0.534018
0.0523781 -5.13608 1.80392 -0.00440354 0.431802 0.901958
-1.86008 -6.95971 -1.597 -0.155436 -0.581583 -0.798499
4.93182 -6.23301 -0.4524 0.604415 -0.763882 -0.2262
2.64284 3.4705 -1.14791 -0.496121 -0.651492 -0.573953
1.60912 -3.6913 -0.326203 -0.394252 0.904413 -0.163101
-3.20789 4.78266 -1.98541 0.0671636 -0.100134 -0.992704
-3.24541 -4.60468 -1.96612 0.105584 0.149805 -0.983062
4.93308 1.12872 1.76563 -0.457885 -0.104767 0.882816
0.512106 -4.10451 -0.725767 -0.115368 0.924665 -0.362883
-4.10251 -4.26727 -1.99838 0.0279033 0.0290239 -0.999189
4.3134 -1.62783 1.43835 -0.650077 0.245332 0.719175
1.38361 -3.75386 0.0540115 -0.345712 0.937952 0.0270057
-3.83129 -1.87006 0.991934 0.780346 0.380889 0.495967
-1.60575 4.21975 1.33963 0.264081 -0.693981 0.669815
-0.935972 -4.79857 -1.66303 0.106347 0.545225 -0.831517
6.93217 3.90009 0.426615 0.851477 0.479047 0.213308
6.25207 -1.80299 -1.93471 0.243503 -0.0702221 -0.967355
-5.00222 4.06544 -1.94965 -0.173029 0.140625 -0.974826
1.85111 4.22265 1.43857 -0.278922 -0.636262 0.719286
-1.27787 5.12355 1.8661 0.0870581 -0.349055 0.93305
-2.93856 -2.72811 -0.19679 0.729307 0.677075 -0.0983948
-3.94413 -0.666266 0.00657624 0.986025 0.166565 0.00328812
-2.62004 -6.8008 -1.53002 -0.231524 -0.600963 -0.76501
-7.60371 2.11797 -0.644905 -0.911872 0.253996 -0.322452
-3.93301 -6.95173 0.226008 -0.489261 -0.864785 0.113004
-3.8989 -3.64006 1.88585 0.243411 0.227251 0.942925
-3.23529 -7.15312 0.758118 -0.381346 -0.843143 0.379059
4.12679 3.76626 1.9569 -0.15251 -0.139186 0.978452
-6.90116 -3.85493 0.609576 -0.831491 -0.464464 0.304788
-3.80265 -3.70552 -1.87703 0.247258 0.240942 -0.938515
-7.32596 -0.348451 -1.4899 -0.666367 -0.031695 -0.74495
1.71493 3.70094 -0.556417 -0.403835 -0.871503 -0.278209
2.4225 3.31829 0.649723 -0.557654 -0.763863 0.324862
2.51755 7.15806 1.21599 0.263417 0.748967 0.607997
-0.980376 -7.82756 -0.657853 -0.117361 -0.937035 -0.328927
4.20851 4.00954 -1.99121 -0.0677867 -0.0645819 -0.995607
-5.56699 -4.21803 -1.74091 -0.392346 -0.297275 -0.870455
5.37572 5.316 -1.25118 0.554723 0.548561 -0.62559
-4.12245 1.09468 -0.995431 0.838289 -0.222601 -0.497716
-2.99361 3.90958 -1.68594 0.327057 -0.427128 -0.842969
3.57493 3.63751 -1.78614 -0.31537 -0.320891 -0.893068
5.36038 1.03487 1.92554 -0.265417 -0.0512413 0.962771
-4.65171 -1.23595 -1.60974 0.57355 0.152391 -0.804871
-6.90977 -0.446947 1.77365 -0.461142 -0.0298282 0.886825
1.63507 3.67613 0.304735 -0.40165 -0.903029 0.152367
2.60969 -7.557 0.142477 0.32559 -0.942824 0.0712383
6.96041 0.453793 -1.74614 0.486561 0.031722 -0.87307
4.78141 6.17497 0.851363 0.553996 0.715461 0.425682
7.38597 -2.68624 -0.736909 0.873658 -0.317746 -0.368454
4.69791 -4.63025 1.90908 0.212303 -0.209245 0.954539
0.250743 -6.47574 -1.9414 0.00929736 -0.240115 -0.9707
1.62323 6.64172 1.81634 0.0993809 0.406633 0.90817
4.77189 1.37223 1.71153 -0.497212 -0.142981 0.855767
-2.00367 -5.9995 1.97338 -0.0515138 -0.154245 0.986689
-0.158789 6.83997 1.81421 -0.00976868 0.420795 0.907103
-4.01741 0.0155868 -0.26353 0.991274 -0.00384596 -0.131765
1.42408 4.04289 -1.03124 -0.284664 -0.808147 -0.51562
4.58089 -1.18477 1.54635 -0.613988 0.158798 0.773177
7.15887 -3.5675 -0.0766539 0.894365 -0.445692 -0.0383269
5.22291 -5.60619 1.11236 0.566496 -0.608069 0.556178
-3.53295 -5.64249 -1.88891 -0.174408 -0.278548 -0.944454
3.06962 3.42172 -1.42516 -0.468502 -0.522241 -0.71258
5.15752 5.73076 -1.03753 0.571899 0.635463 -0.518766
2.86204 -7.11252 1.1054 0.311105 -0.773135 0.552699
4.584 5.98792 -1.27476 0.468394 0.611846 -0.637378
-6.76794 -1.40447 1.77989 -0.446552 -0.0926673 0.889946
5.15913 -6.09816 -0.220988 0.641925 -0.758764 -0.110494
-4.35627 5.44348 -1.74793 -0.30366 0.379445 -0.873964
-5.6721 -5.24216 -1.01461 -0.632875 -0.584903 -0.507305
5.48352 -1.12434 1.9591 -0.197098 0.040413 0.97955
2.01077 3.5645 0.601323 -0.468593 -0.830676 0.300661
-2.4616 -7.20886 -1.17623 -0.261355 -0.765384 -0.588117
-5.65346 3.34887 -1.91679 -0.245588 0.145476 -0.958396
-5.3098 -5.84409 -0.636427 -0.637509 -0.701657 -0.318214
7.15337 2.36468 -1.2832 0.728281 0.240746 -0.641598
0.363494 4.55335 1.39603 -0.0569838 -0.713813 0.698014
6.31862 -3.307 1.64901 0.50134 -0.262389 0.824506
-7.38876 0.954129 1.37738 -0.719084 0.0928571 0.688691
1.76358 4.46254 1.59878 -0.22082 -0.558759 0.799392
2.51768 -5.79609 1.97435 0.0636032 -0.146424 0.987175
0.517571 5.24116 -1.8607 -0.0360341 -0.364898 -0.93035
3.09485 -2.98007 -1.04771 -0.613589 0.590834 -0.523855
7.00515 1.68343 -1.59655 0.58562 0.140732 -0.798275
5.28749 1.09232 -1.90761 -0.294217 -0.0607808 -0.953804
-7.99899 -0.0822716 -0.0483565 -0.999655 -0.0102817 -0.0241782
4.0067 -0.0197089 -0.164168 -0.996613 0.00490233 -0.0820839
-3.93891 -2.26945 -1.3732 0.629956 0.362956 -0.686599
-7.66185 0.0961323 -1.11186 -0.831162 0.0104285 -0.555932
-0.232001 -6.65779 -1.88732 -0.0115243 -0.330716 -0.94366
-0.148324 -7.08784 -1.67727 -0.0113962 -0.544578 -0.838633
-6.25924 0.506177 -1.98035 -0.13938 0.0112715 -0.990175
-6.8685 3.31188 1.16554 -0.731986 0.352951 0.582771
4.05838 -1.63026 -1.16394 -0.754602 0.303125 -0.581972
6.0778 -1.53653 -1.98182 0.130406 -0.0329681 -0.990912
-5.12679 5.72862 -1.07312 -0.562755 0.628816 -0.536562
-2.43307 4.89225 -1.9268 0.119368 -0.240017 -0.963402
3.14693 -3.9244 -1.7492 -0.303314 0.378249 -0.874602
-4.08481 -6.46734 1.13125 -0.440378 -0.697234 0.565626
-3.96924 -4.84139 -1.98296 -0.0825812 -0.100727 -0.991481
-1.91777 3.81559 -1.00429 0.388358 -0.772676 -0.502145
1.50552 -7.09223 1.56104 0.129809 -0.611507 0.780518
1.55794 -7.74311 0.629698 0.187218 -0.930494 0.314849
3.55976 -3.29443 -1.6365 -0.421908 0.390461 -0.81825
-2.93505 -7.28316 0.754258 -0.346181 -0.85903 0.377129
0.105084 -7.92514 -0.539586 0.0127668 -0.962834 -0.269793
3.873 -5.88176 1.70687 0.286634 -0.435299 0.853437
-5.08352 -1.30499 1.85338 0.364022 0.0934482 0.92669
-3.96688 -2.03697 1.27524 0.685284 0.351889 0.637621
-4.74911 -0.15624 1.56259 0.623822 0.020523 0.781297
1.55109 4.20566 1.30285 -0.262536 -0.711844 0.651423
5.49223 -0.305462 1.93668 -0.249253 0.0138627 0.968339
-7.70879 1.39783 -0.796616 -0.902534 0.163656 -0.398308
4.30083 3.06184 1.86567 -0.293518 -0.208961 0.932836
-4.50494 6.61102 -0.000325511 -0.563117 0.826377 -0.000162755
-4.86149 3.76267 1.99455 -0.0583245 0.0451417 0.997277
2.30604 4.59901 -1.80792 -0.191669 -0.382251 -0.903962
-1.61882 -4.0388 -1.13193 0.306724 0.765248 -0.565965
-6.48398 1.85891 -1.85599 -0.358167 0.102684 -0.927994
-2.84047 3.43422 -1.27209 0.491812 -0.594616 -0.636045
5.99395 -4.81743 1.06964 0.658613 -0.529337 0.534819
4.39461 -1.28885 -1.40811 -0.681445 0.199854 -0.704053
5.61877 1.18287 1.98328 -0.126265 -0.0265815 0.99164
2.36833 -7.63504 0.155807 0.295365 -0.952203 0.0779035
-2.70249 -5.70082 -1.97599 -0.0661701 -0.139584 -0.987997
7.92875 0.647621 0.421166 0.974331 0.0795835 0.210583
-7.57714 -1.05444 -1.13004 -0.817202 -0.113723 -0.56502
-0.127241 -6.86411 -1.80313 -0.00801863 -0.432572 -0.901564
-3.96772 -4.53482 1.99984 -0.00841639 -0.00961933 0.999918
0.564695 -4.0075 -0.431445 -0.136246 0.966903 -0.215723
-1.20361 3.8709 -0.460378 0.288943 -0.92926 -0.230189
2.46106 7.53381 0.540437 0.298969 0.915205 0.270219
1.74529 4.19798 -1.37362 -0.279027 -0.671147 -0.686808
4.20666 6.80437 -0.0340063 0.525775 0.850454 -0.0170031
4.27982 -1.29305 1.28912 -0.73188 0.221121 0.64456
4.70655 -6.07403 -1.0788 0.515759 -0.665612 -0.5394
2.86702 -3.01395 0.783294 -0.634168 0.666666 0.391647
-2.4981 -3.54942 1.1161 0.477596 0.67859 0.558048
-4.62672 0.335059 -1.46534 0.678806 -0.0491579 -0.732671
5.97814 -2.6541 1.92549 0.247151 -0.109727 0.962744
7.87086 1.42932 0.0408273 0.983703 0.178637 0.0204136
-3.69411 -2.80159 1.46299 0.543279 0.41202 0.731497
2.41066 -3.27602 -0.514774 -0.572712 0.778301 -0.257387
2.59725 -5.92831 1.94344 0.0947619 -0.216297 0.971718
4.63861 1.69149 1.69436 -0.499153 -0.182019 0.847181
4.04362 -0.0719447 0.41841 -0.977717 0.0173957 0.209205
6.25052 4.95832 -0.293556 0.774951 0.614741 -0.146778
1.02136 -6.52314 -1.90705 0.0466095 -0.297681 -0.953527
-5.86839 1.96837 1.99098 -0.0899297 0.0301641 0.995491
2.19334 -7.02399 1.46784 0.202461 -0.648362 0.733918
-6.90171 3.96438 -0.401619 -0.849466 0.487938 -0.20081
0.237562 -5.5951 -1.95962 -0.00848113 0.199749 -0.97981
3.71409 5.4217 -1.9165 0.161592 0.235887 -0.958251
-5.56885 4.7047 -1.52824 -0.492765 0.416299 -0.764119
2.13302 4.4777 -1.70821 -0.223676 -0.469547 -0.854105
0.543206 -7.61648 1.15068 0.0581857 -0.815842 0.575341
-6.8163 -4.15141 -0.275123 -0.845948 -0.515218 -0.137562
0.0398505 6.71276 -1.86864 0.00211596 0.356431 -0.934319
7.15897 -3.56382 0.109909 0.893856 -0.444973 0.0549545
0.358937 6.17625 1.99127 0.00541503 0.0931768 0.995635
3.07802 -4.633 -1.95151 -0.121114 0.1823 -0.975755
-1.88736 5.41251 1.98198 0.0440984 -0.126464 0.990991
-7.548 2.47803 -0.468461 -0.923676 0.303246 -0.23423
-3.41538 5.46645 -1.94971 -0.118078 0.188989 -0.974854
-4.87274 -3.3232 1.9974 0.0421051 0.0287156 0.9987
0.715056 -4.15674 -0.90761 -0.151071 0.878202 -0.453805
3.0506 4.11983 -1.79908 -0.259956 -0.351071 -0.89954
1.3969 6.21067 -1.96626 0.0401384 0.178457 -0.983129
5.64411 -3.41544 1.9088 0.255407 -0.154555 0.9544
5.95477 -2.32359 1.9612 0.182618 -0.0712585 0.980598
3.53449 4.56408 -1.98704 -0.0696032 -0.0898784 -0.993518
0.392322 7.22127 1.57556 0.033415 0.615052 0.787778
3.20623 -4.54681 1.9518 -0.125752 0.178332 0.975902
-1.09032 -5.62274 1.98135 0.0259393 0.133769 0.990673
-5.16861 5.8544 0.851863 -0.598799 0.67825 0.425931
-3.40615 2.09751 -0.0261605 0.851427 -0.52431 -0.0130802
4.11845 -0.208894 -0.692576 -0.936924 0.0475222 -0.346288
-3.30625 -4.00509 -1.83016 0.256729 0.310994 -0.915081
4.63013 -0.550007 1.48714 -0.663992 0.0788749 0.743568
7.55442 0.433051 -1.24301 0.782127 0.0448348 -0.621504
6.52187 -3.99583 -1.13227 0.70288 -0.430641 -0.566134
-7.65628 -2.13582 0.450485 -0.938471 -0.261799 0.225242
-3.46945 -3.01971 1.42783 0.528187 0.459719 0.713916
1.83135 7.01337 -1.56243 0.157721 0.604013 -0.781212
-4.59489 5.03579 1.82549 -0.275359 0.30178 0.912747
-3.78322 -6.97606 -0.502386 -0.461438 -0.850868 -0.251193
-2.03027 -3.54175 0.568164 0.476833 0.831822 0.284082
4.43236 -6.033 -1.33839 0.439962 -0.598844 -0.669193
-6.07463 -3.60594 1.69332 -0.457586 -0.271626 0.846661
5.97639 -1.71849 1.98802 0.105025 -0.0301994 0.994011
-2.76861 -3.36613 1.14249 0.521384 0.633908 0.571244
-0.784384 -5.01096 1.77166 0.0717594 0.458428 0.88583
4.93922 6.28935 0.109795 0.616703 0.785279 0.0548977
7.00489 1.48342 1.62906 0.567532 0.120186 0.814532
-1.07476 5.0129 1.79932 0.0915246 -0.426889 0.899661
3.08831 6.86393 -1.29197 0.313213 0.696132 -0.645985
-4.60436 5.39172 -1.67675 -0.353985 0.414517 -0.838373
6.70265 -0.674004 -1.85947 0.366377 -0.0368421 -0.929737
-7.45813 0.618546 1.3411 -0.739328 0.0613168 0.670548
-3.36056 2.56408 0.92553 0.704765 -0.537731 0.462765
3.19474 -2.8274 0.996983 -0.649171 0.574528 0.498492
4.22892 2.48267 1.67284 -0.47266 -0.277485 0.836418
7.53519 2.31103 0.677857 0.899459 0.275863 0.338928
1.03838 -6.043 -1.99567 0.0111406 -0.0648342 -0.997834
-7.30213 -2.25989 -1.13921 -0.785177 -0.243 -0.569603
-3.61058 2.90806 1.46277 0.531117 -0.427777 0.731383
-5.33916 1.09153 1.92277 0.269626 -0.0551223 0.961386
-6.55173 -1.42111 1.87197 -0.344039 -0.0746242 0.935985
-4.23838 2.54792 1.69928 0.45198 -0.27171 0.84964
-4.36101 -6.46951 -0.867406 -0.503648 -0.747155 -0.433703
-1.63898 -6.45919 1.8866 -0.0816416 -0.321748 0.943299
3.32144 4.5101 1.95983 -0.118255 -0.160575 0.979914
-3.92417 -0.89505 -0.31493 0.962798 0.219601 -0.157465
-6.02292 2.36028 -1.94426 -0.21828 0.0855404 -0.97213
7.83292 -1.18759 0.551594 0.950355 -0.144088 0.275797
-7.94844 0.614578 -0.332544 -0.983145 0.0760174 -0.166272
1.09181 -4.24883 1.18228 -0.20074 0.781188 0.591142
4.88961 6.15101 -0.740942 0.577993 0.727101 -0.370471
-4.47972 -1.02084 1.42293 0.685155 0.156134 0.711467
-3.28958 2.82897 -1.1136 0.62979 -0.541605 -0.556802
4.49345 -4.37361 1.98162 0.0969297 -0.0943446 0.99081
7.73794 -2.02635 0.0675138 0.966828 -0.253186 0.0337569
-1.81847 -3.73144 -0.762258 0.405019 0.831084 -0.381129
3.52427 7.1397 0.38725 0.434252 0.879736 0.193625
-1.34683 7.0786 1.59579 -0.112671 0.59217 0.797897
7.23796 3.06175 -0.737889 0.856014 0.362105 -0.368944
-1.4052 -7.63918 -0.936203 -0.159866 -0.869094 -0.468101
-7.25564 -2.76001 -0.94463 -0.823838 -0.313383 -0.472315
5.13763 -1.63248 -1.90494 -0.290321 0.0922495 -0.952472
6.51587 -4.15925 -1.0032 0.729203 -0.465469 -0.501599
-5.16541 -3.44283 1.98919 -0.0863812 -0.0575744 0.994597
4.27981 1.54046 -1.37602 -0.682815 -0.245771 -0.688012
3.78369 -1.94712 -0.977772 -0.775666 0.399165 -0.488886
2.26398 6.65456 -1.7149 0.165735 0.487148 -0.857449
-1.51351 -6.43259 -1.90527 -0.0696541 -0.296038 -0.952633
-0.415821 7.05161 -1.69357 -0.0313127 0.531009 -0.846787
7.83443 -1.61455 0.0612481 0.978959 -0.201747 0.0306241
5.75142 5.55651 0.107638 0.718145 0.693809 0.0538189
4.51463 6.54144 -0.452643 0.553275 0.801664 -0.226321
-5.93905 -4.64831 1.27389 -0.607078 -0.475141 0.636943
5.66788 -5.61996 -0.269336 0.703633 -0.697685 -0.134668
3.16985 -7.2491 -0.587225 0.382987 -0.875849 -0.293613
-0.601784 -6.77723 -1.83133 -0.0355509 -0.400371 -0.915663
-5.33218 -5.0475 -1.48264 -0.487407 -0.461385 -0.741322
4.92722 5.69361 1.28855 0.500467 0.578311 0.644275
-7.45987 -2.83681 -0.27468 -0.925841 -0.352075 -0.13734
-1.82165 -7.76979 0.278778 -0.226035 -0.964095 0.139389
1.15884 7.38375 1.35164 0.11428 0.728153 0.675821
-6.66749 2.40906 -1.67729 -0.512266 0.185089 -0.838645
-2.64475 -7.54142 0.181723 -0.329567 -0.93975 0.0908616
3.38258 6.2902 -1.64189 0.27044 0.502906 -0.820943
3.30884 -7.17942 -0.608386 0.398729 -0.865149 -0.304193
-2.79869 3.55389 1.34914 0.456722 -0.579963 0.674572
3.99046 -0.585737 -0.363009 -0.972964 0.142816 -0.181505
-4.31951 3.19099 1.8983 0.253225 -0.187067 0.949149
-7.33172 3.1558 -0.267342 -0.910282 0.391814 -0.133671
4.62144 0.813852 1.51347 -0.643817 -0.113378 0.756733
-7.20107 -3.09657 -0.787044 -0.844542 -0.363166 -0.393522
-5.55386 -4.68765 1.54691 -0.484379 -0.408833 0.773455
-3.76973 -5.71272 1.813 -0.232542 -0.352399 0.906498
-3.47164 3.8686 1.83212 0.267852 -0.29848 0.916059
4.15134 0.384973 0.804983 -0.911513 -0.0845288 0.402492
6.5898 -2.01058 -1.79121 0.425485 -0.129818 -0.895606
1.83725 3.97064 1.16605 -0.341177 -0.737347 0.583025
-6.44013 4.02809 1.20518 -0.676604 0.423193 0.60259
2.8829 7.36762 -0.588142 0.348278 0.89007 -0.294071
-4.45835 6.6343 -0.165141 -0.555865 0.827162 -0.0825705
-0.44881 -6.91496 1.77088 -0.0301011 -0.463778 0.88544
-7.68435 -0.904236 -0.99074 -0.86273 -0.10152 -0.49537
5.05691 2.10034 -1.93007 -0.242077 -0.100545 -0.965033
-4.81952 1.26649 1.72221 0.49173 -0.129218 0.861107
6.2507 4.18386 1.29786 0.632282 0.423213 0.648929
-0.718096 4.80751 1.64388 0.0841439 -0.563327 0.821938
5.79053 -1.50351 1.99992 -0.00844908 0.00219379 0.999962
-2.6449 -3.94722 -1.56239 0.347513 0.518623 -0.781194
-3.8199 -5.89824 -1.71609 -0.279176 -0.43107 -0.858044
4.45731 5.64254 1.60695 0.369034 0.467163 0.803476
-4.76708 -5.91993 -1.19907 -0.50197 -0.623364 -0.599535
-4.42376 -3.11675 1.91144 0.240566 0.16949 0.95572
0.140607 -4.79106 -1.59482 -0.0177021 0.603181 -0.797408
-4.95844 0.00150358 1.70738 0.520779 -0.000157919 0.853691
-4.75905 -2.365 -1.87878 0.307028 0.152577 -0.93939
-1.74122 3.72267 0.653448 0.400427 -0.856102 0.326724
-0.551755 7.97797 0.108975 -0.0688925 0.996135 0.0544875
3.84413 -5.07569 1.96602 0.110819 -0.146322 0.98301
3.82943 1.22616 0.288715 -0.942395 -0.301749 0.144358
-5.92672 5.36106 0.182274 -0.738525 0.668038 0.0911368
3.29679 -2.26781 0.0768526 -0.823286 0.566325 0.0384263
4.55387 -1.50553 -1.59721 -0.571439 0.18892 -0.798603
-6.32349 -0.222061 1.97302 -0.163592 -0.00574486 0.986511
-4.95441 -5.91483 1.02787 -0.550833 -0.657613 0.513934
2.30901 -4.71896 -1.85549 -0.164031 0.335231 -0.927747
2.69644 2.9911 0.328063 -0.660505 -0.732685 0.164032
2.5484 3.19936 -0.594045 -0.594923 -0.74689 -0.297022
1.04761 -5.29778 1.908 -0.0581606 0.294119 0.953998
1.56017 -7.78588 -0.483578 0.190649 -0.951415 -0.241789
-0.794549 -6.33263 1.96312 -0.0237959 -0.189655 0.981562
7.43853 0.979473 -1.31977 0.744938 0.0980902 -0.659883
-0.540263 -4.4264 -1.27518 0.0933354 0.764701 -0.63759
-7.69264 1.6641 0.707773 -0.914144 0.197751 0.353887
2.68911 4.54095 1.86492 -0.184084 -0.310853 0.932461
-3.95984 1.40234 -0.87347 0.847985 -0.300305 -0.436735
-2.55741 6.25061 -1.85261 -0.142676 0.348717 -0.926305
-5.60622 -5.66667 0.337896 -0.693195 -0.700669 0.168948
0.664451 -4.76188 -1.60598 -0.0823642 0.590274 -0.80299
4.05721 -4.2077 1.994 -0.0537448 0.0557381 0.996998
-3.02338 -3.15628 -1.15989 0.56353 0.588301 -0.579945
-7.96171 0.329939 -0.353299 -0.98343 0.0407541 -0.17665
2.50804 5.26374 -1.99282 -0.0364082 -0.0764117 -0.996411
-6.20301 -4.92701 -0.554277 -0.752372 -0.597604 -0.277139
-4.95777 -3.03709 1.99134 0.0792727 0.0485618 0.995669
4.64589 -0.978212 -1.55945 -0.61269 0.129005 -0.779724
-3.56197 1.85174 -0.240757 0.880813 -0.457905 -0.120378
-4.2032 0.323176 -0.903288 0.889573 -0.0683975 -0.451644
-5.25986 3.42718 -1.9806 -0.116407 0.0758473 -0.990301
-0.302694 -6.40964 -1.95609 -0.00983021 -0.208158 -0.978046
7.86795 0.0282239 0.714546 0.933994 0.00335042 0.357273
2.0886 -5.47353 1.99499 -0.0252265 0.0661105 0.997493
2.71605 -7.31718 -0.861383 0.314059 -0.846092 -0.430691
-0.482254 4.49374 1.34471 0.0789855 -0.736002 0.672356
-5.46702 5.03534 1.39563 -0.526859 0.485258 0.697814
0.661702 -4.48999 1.36527 -0.106543 0.72295 0.682636
4.89491 -4.64121 1.85589 0.27047 -0.256451 0.927943
-0.309595 4.35977 1.15998 0.0577024 -0.812577 0.57999
7.05939 3.21096 -0.958541 0.798907 0.363383 -0.479271
-3.20813 5.94032 -1.85354 -0.178495 0.33051 -0.92677
4.36254 6.42906 0.932194 0.496776 0.732098 0.466097
-2.74389 -3.57558 1.33086 0.454444 0.592188 0.665428
6.2632 -3.88327 -1.45769 0.581906 -0.36079 -0.728846
-2.82922 7.39349 -0.572461 -0.342438 0.894879 -0.28623
-4.77904 -6.09619 0.975189 -0.538647 -0.687104 0.487594
-4.13595 -2.16482 -1.49213 0.589949 0.308788 -0.746063
-2.71221 -5.26357 -1.99845 0.0180338 0.034998 -0.999225
6.78727 3.75815 -0.953156 0.769103 0.425857 -0.476578
-4.71785 2.73233 -1.92344 0.237129 -0.137333 -0.961722
7.2165 -0.381659 -1.57971 0.612435 -0.0323898 -0.789857
-1.35482 -7.36442 1.33635 -0.134614 -0.731725 0.668175
-2.44839 3.43679 0.911393 0.516478 -0.724977 0.455696
5.68322 -5.61863 0.181518 0.708202 -0.700152 0.0907588
-6.3011 0.465194 1.97452 -0.158693 0.0117159 0.987258
-0.497706 6.70782 -1.86348 -0.0268697 0.362135 -0.931738
-3.18326 -7.29952 -0.380723 -0.392425 -0.899869 -0.190362
-7.39401 2.72972 -0.677361 -0.882671 0.325865 -0.338681
6.04192 4.75801 -1.06877 0.664051 0.52294 -0.534388
-3.61188 4.34755 -1.96952 0.11114 -0.133777 -0.98476
-0.825617 4.01151 0.610919 0.191952 -0.932657 0.30546
0.500609 -4.83772 1.64575 -0.0584879 0.565207 0.822873
-5.49021 -0.519444 1.94023 0.241558 0.0228545 0.970117
5.65676 -4.19603 -1.70643 0.418898 -0.310727 -0.853214
0.412417 6.37419 -1.9621 0.0125103 0.193355 -0.981049
3.48771 4.24133 -1.93419 -0.161591 -0.196507 -0.967095
-6.1247 -4.92657 0.734564 -0.724744 -0.582967 0.367282
6.55271 -3.7151 -1.28497 0.666614 -0.377941 -0.642485
1.47741 7.01574 -1.62235 0.120508 0.572253 -0.811175
4.42511 6.64811 0.234762 0.550266 0.826698 0.117381
-0.716212 7.92833 -0.394951 -0.0881977 0.976332 -0.197476
-1.8187 -4.62166 -1.71235 0.189201 0.480796 -0.856176
-6.35985 -4.42262 -0.974657 -0.716916 -0.498541 -0.487329
-4.7085 2.81457 1.93272 0.220765 -0.131965 0.966358
7.05887 -1.78667 1.53552 0.621148 -0.157219 0.767762
-3.66456 -3.02927 1.56486 0.479978 0.396768 0.78243
5.67068 -2.64194 1.98356 0.115985 -0.0540368 0.99178
2.83323 -4.67949 1.92859 -0.137158 0.226536 0.964297
-1.16409 -6.33015 1.95183 -0.039455 -0.21455 0.975916
-2.55987 3.2977 0.8174 0.559642 -0.720947 0.4087
-6.58929 -3.91116 1.1116 -0.714871 -0.424321 0.555798
5.00023 -1.06571 -1.79232 -0.433983 0.0924957 -0.89616
7.80823 -0.746749 0.774722 0.917741 -0.0877692 0.387361
4.1358 1.33804 -1.12567 -0.786436 -0.254433 -0.562834
7.74943 1.93931 -0.215066 0.96446 0.241358 -0.107533
-4.49998 5.52773 -1.65168 -0.356007 0.437315 -0.825842
-2.95163 -4.91653 -1.9823 0.0683311 0.113819 -0.991149
-1.96829 4.24029 1.49799 0.278969 -0.600984 0.748996
-1.70131 3.91538 1.00188 0.344914 -0.793785 0.500939
5.18515 3.5101 -1.98283 0.108281 0.0733012 -0.991414
-3.74989 6.63076 -1.1761 -0.398154 0.704038 -0.588051
-6.43414 0.439659 1.94892 -0.224047 0.0153097 0.974458
5.95278 -3.49851 -1.78367 0.389996 -0.229205 -0.891834
6.59752 -1.88749 -1.8046 0.414477 -0.118578 -0.902302
6.17933 -3.72261 1.58939 0.519947 -0.313231 0.794696
-5.86238 4.57977 1.38877 -0.567074 0.443007 0.694386
4.54579 -0.404031 -1.39178 -0.715326 0.0635785 -0.695892
-1.97594 3.58834 0.613446 0.459109 -0.833751 0.306723
-0.676018 3.94332 0.0582313 0.168897 -0.985204 0.0291156
-4.81857 -0.184869 -1.61635 0.588511 0.0225788 -0.808174
2.5462 3.48444 1.07834 -0.496893 -0.679993 0.539172
-2.21634 3.46486 0.662981 0.508384 -0.79477 0.331491
1.46652 -5.78952 1.99981 -0.00339201 0.013391 0.999905
6.59202 -4.43392 -0.468087 0.806718 -0.542614 -0.234043
1.10295 6.92453 1.72517 0.0795792 0.499613 0.862585
3.46545 -5.38061 -1.95959 0.1083 -0.168152 -0.979794
-0.200117 6.2145 -1.98811 -0.00350369 0.108805 -0.994057
4.27621 5.5237 1.74034 0.301641 0.389638 0.870169
1.56076 -3.88158 -0.837104 -0.338815 0.842626 -0.418552
-4.89672 -4.80431 1.80567 -0.306928 -0.301136 0.902836
2.29629 -4.63167 1.81948 -0.184415 0.371969 0.909742
-1.08817 -7.92406 0.0793375 -0.135941 -0.989923 0.0396687
1.40015 -7.6701 -0.878259 0.161338 -0.883819 -0.439129
-4.27414 -3.43812 1.93265 0.200511 0.161291 0.966323
-0.0478925 4.82598 1.61933 0.00582395 -0.586862 0.809666
-7.02642 2.6616 1.30726 -0.707741 0.268092 0.653628
5.7329 -5.57855 -0.0581979 0.716385 -0.697098 -0.029099
-2.78837 3.15043 0.886414 0.594117 -0.671262 0.443207
-6.21688 -3.33468 1.69926 -0.464745 -0.249285 0.849629
-4.1881 -1.69885 -1.34471 0.685944 0.278244 -0.672355
-3.13653 4.08321 -1.80984 0.259256 -0.337506 -0.904918
-6.4941 2.24493 1.80029 -0.411685 0.142314 0.900146
-5.62234 -1.75127 -1.9969 0.0530989 0.0165395 -0.998452
-2.41552 7.62227 0.128623 -0.301471 0.951304 0.0643113
-3.34413 2.38068 -0.639443 0.771892 -0.549509 -0.319722
1.83704 3.55543 0.0888907 -0.45858 -0.887541 0.0444453
-2.91541 3.29334 1.19783 0.530809 -0.599618 0.598915
5.24026 0.496351 -1.85954 -0.366503 -0.0347147 -0.929769
3.46378 -4.33245 -1.94799 -0.141476 0.176956 -0.973997
-4.26956 -5.32264 1.82261 -0.257627 -0.32117 0.911305
-4.68824 -6.3706 0.594008 -0.565971 -0.769068 0.297004
-3.89832 -6.35423 -1.37249 -0.380364 -0.619991 -0.686247
-7.75621 1.81985 -0.362632 -0.957424 0.224642 -0.181316
2.26969 5.18956 1.97161 -0.0672821 -0.153838 0.985803
-0.191935 -4.06645 -0.528099 0.0454739 0.963437 -0.264049
3.78164 6.77378 0.953839 0.428449 0.76745 0.47692
0.00325281 5.63413 1.96625 -0.000105617 -0.182936 0.983125
7.95525 -0.691078 -0.242757 0.988882 -0.0859048 -0.121379
0.107769 4.26543 -0.997987 -0.0218885 -0.866329 -0.498994
-3.53251 6.32036 -1.56877 -0.302619 0.541445 -0.784385
2.06822 4.17546 1.48437 -0.297472 -0.600558 0.742186
-2.18331 -5.23541 -1.97299 0.0630417 0.15117 -0.986496
7.55372 -1.39478 -1.08299 0.826729 -0.152654 -0.541494
-5.93106 -4.97239 -0.986734 -0.666563 -0.558823 -0.493367
-2.74644 5.73171 -1.96811 -0.07686 0.160404 -0.984054
-0.493347 -7.62301 1.14623 -0.0529243 -0.817766 0.573113
7.38836 3.0349 0.224186 0.919173 0.377567 0.112093
3.36223 6.74255 1.28287 0.342355 0.686552 0.641435
-3.39252 5.03314 1.99878 -0.0194872 0.0289112 0.999392
1.28309 -7.76154 0.717476 0.152244 -0.920939 0.358738
-1.06444 5.73315 -1.99286 0.0154132 -0.083017 -0.996429
-5.01592 -0.507691 -1.75538 0.476791 0.0482588 -0.877691
2.21794 -6.70397 1.69516 0.166681 -0.503811 0.84758
6.83657 0.529787 1.80705 0.427252 0.0331091 0.903526
4.37 -0.892285 -1.27629 -0.754352 0.154027 -0.638145
-5.68283 -4.79059 -1.39553 -0.547685 -0.461696 -0.697766
-7.19611 0.411803 1.59406 -0.602954 0.0345045 0.79703
3.99738 0.608517 0.414529 -0.967143 -0.147227 0.207265
1.25691 -6.53974 1.88816 0.0622309 -0.32379 0.94408
-7.79782 1.7868 -0.0187459 -0.974695 0.223342 -0.00937293
4.54259 -6.28676 -0.956969 0.514277 -0.711739 -0.478485
-4.46875 -0.566982 -1.32805 0.741764 0.0941127 -0.664025
-7.76009 -1.73145 0.440431 -0.952041 -0.212422 0.220215
1.85137 -7.76471 0.264976 0.229888 -0.964157 0.132488
-4.49291 2.83461 1.87807 0.290783 -0.183457 0.939036
-1.46267 7.09985 -1.56209 -0.126004 0.611628 -0.781047
5.62822 -5.45047 0.795877 0.659031 -0.638218 0.397938
-0.562571 -4.64973 1.50572 0.0790568 0.653416 0.75286
2.12498 -7.34907 1.13009 0.229177 -0.792593 0.565043
6.36121 1.88626 -1.89652 0.304391 0.0902598 -0.948261
0.555122 -7.52111 1.2742 0.056736 -0.768692 0.637098
-6.10544 5.02715 0.597148 -0.736771 0.606648 0.298574
1.79114 -4.89885 -1.83994 -0.134605 0.368151 -0.919971
