# x y Mean_Curvature nx ny
-3.94976 1.19413 -0.69952 0.896752 -0.271114 -0.34976
-4.60255 -1.16336 -1.55908 0.607253 0.153492 -0.779541
4.11371 -1.404 -1.12543 -0.78234 0.26701 -0.562716
5.3198 4.92108 -1.56374 0.457655 0.423354 -0.781871
-7.41648 2.22668 -0.979844 -0.834947 0.250679 -0.489922
5.14626 -3.27691 1.99745 0.0425945 -0.0271223 0.998724
2.40167 6.54145 1.74991 0.16688 0.454535 0.874957
-6.10403 -2.57741 1.89955 -0.28829 -0.12173 0.949774
-2.22675 6.04234 -1.95109 -0.0760022 0.206234 -0.975547
2.12501 3.97823 1.33436 -0.350961 -0.657035 0.667182
-5.67688 5.62793 0.157495 -0.707957 0.701852 0.0787477
6.60403 0.538468 -1.89952 0.311938 0.0254342 -0.949762
7.0896 1.80239 1.5068 0.637288 0.162018 0.753402
4.11225 -5.07098 -1.92882 0.166541 -0.205369 -0.964411
-4.40264 6.3686 -0.982137 -0.495365 0.716565 -0.491069
-5.36807 -5.56928 0.994556 -0.602092 -0.62466 0.497278
-1.75987 -3.77337 -0.792211 0.388108 0.832149 -0.396106
-0.499067 4.68621 1.53065 0.068161 -0.640027 0.765323
-5.00903 6.11898 -0.600444 -0.604214 0.738101 -0.300222
5.46991 -3.21935 1.96967 0.149517 -0.0879991 0.984835
4.06258 0.603773 -0.646002 -0.936117 -0.139124 -0.323001
-0.106508 6.97648 -1.74497 -0.00745916 0.488588 -0.872483
2.0603 -3.43173 -0.103817 -0.514033 0.856198 -0.0519087
1.37241 -4.03868 0.995733 -0.279037 0.821138 0.497867
-5.38174 -4.8577 1.56136 -0.463899 -0.418728 0.780682
-4.32362 -6.72668 0.120482 -0.539716 -0.839689 0.0602412
3.81314 -1.89311 -0.981176 -0.780495 0.387493 -0.490588
4.89945 6.31397 -0.179568 0.610574 0.786854 -0.0897842
-1.36317 3.76091 0.0364943 0.340707 -0.939992 0.0182472
0.797293 7.95814 -0.0899415 0.099586 0.994012 -0.0449707
-4.95351 -0.50004 1.71957 0.508074 0.0512883 0.859785
-6.27604 1.54818 -1.94539 -0.22533 0.0555846 -0.972696
-6.31189 -3.54654 1.56919 -0.54053 -0.303714 0.784593
-4.91135 5.5984 1.38026 -0.477253 0.544016 0.690128
0.81928 5.15275 1.84056 -0.0614384 -0.386408 0.920279
-4.97645 5.4282 -1.46259 -0.460917 0.502758 -0.731293
-4.85768 3.14379 1.98854 0.0897319 -0.0580726 0.994271
4.93367 -1.98797 -1.88054 -0.315765 0.127234 -0.940268
-4.81801 -6.08827 -0.942441 -0.547339 -0.691644 -0.471221
-7.28506 2.52597 1.03635 -0.808079 0.280188 0.518173
-1.59151 -3.70681 -0.367359 0.38781 0.903253 -0.18368
4.49557 6.26092 -1.04097 0.498024 0.693592 -0.520483
-3.79267 2.59643 1.42463 0.579147 -0.39648 0.712315
6.74882 4.29219 0.0873469 0.842999 0.536139 0.0436735
-3.69938 4.68675 -1.99979 0.00903001 -0.0114401 -0.999894
3.25086 7.29159 -0.256857 0.403828 0.905775 -0.128429
6.56245 -4.57534 0.0113617 0.820296 -0.57191 0.00568087
1.85586 -6.246 -1.93232 0.0734677 -0.247259 -0.96616
3.94531 3.24875 -1.79144 -0.34323 -0.282631 -0.895719
3.73754 2.34722 -1.21774 -0.67178 -0.421886 -0.60887
-5.12756 4.82454 1.70806 -0.378882 0.356491 0.854027
-4.1019 2.31362 1.52785 0.562062 -0.317023 0.763926
-0.604859 4.11041 -0.771213 0.134326 -0.912833 -0.385606
2.52757 -3.42144 0.975095 -0.518786 0.702252 0.487548
4.18105 0.0359913 -0.831851 -0.909365 -0.00782799 -0.415926
3.55399 5.13113 1.98534 0.0688215 0.0993623 0.992668
3.87725 1.41898 -0.706001 -0.878631 -0.321557 -0.353
3.90797 -4.85279 1.98665 0.0723528 -0.0898452 0.993324
3.39949 3.09894 -1.42829 -0.517313 -0.471578 -0.714144
-6.63794 -4.27848 0.632588 -0.797379 -0.51395 0.316294
2.93622 -3.02034 0.896821 -0.623045 0.640892 0.44841
4.16271 -4.50763 1.99539 0.0460329 -0.0498472 0.997695
-4.08408 -0.409281 0.638129 0.94301 0.0945025 0.319065
-4.24365 1.44163 -1.30198 0.718743 -0.244167 -0.650992
5.68865 -2.96877 1.9561 0.184719 -0.0964002 0.978052
-5.37922 2.7778 1.99927 -0.024037 0.0124126 0.999634
5.45064 -3.5692 -1.93249 0.215533 -0.141136 -0.966243
7.4006 -2.48187 0.859957 0.855987 -0.287064 0.429978
6.47248 4.15018 -1.0715 0.710805 0.455771 -0.535751
-1.70038 -4.83483 1.79849 0.145131 0.412664 0.899247
6.99916 3.87399 0.0313691 0.874814 0.484204 0.0156845
-4.38239 -6.65348 -0.361474 -0.541005 -0.82137 -0.180737
7.20759 3.0089 -0.849902 0.835348 0.348727 -0.424951
-4.20417 3.91238 1.98342 0.0940761 -0.0875468 0.991708
3.68148 4.33342 -1.97521 -0.101614 -0.119609 -0.987607
-4.60348 -3.33883 -1.97533 0.126764 0.0919399 -0.987663
5.59169 -3.51649 1.90614 0.256285 -0.161172 0.953069
-0.550361 -7.97245 0.184971 -0.0685738 -0.99335 0.0924854
2.718 5.10774 1.98851 -0.0502904 -0.0945073 0.994253
3.01196 -5.13452 -1.99944 -0.0119543 0.0203787 -0.999721
-5.64924 4.1431 1.72877 -0.405471 0.297368 0.864387
6.34541 -2.39271 1.84098 0.365638 -0.137874 0.920489
-5.03893 -1.70014 1.88013 0.323098 0.109014 0.940066
3.02144 -5.16906 1.99996 -0.00319421 0.00546464 0.99998
3.70802 -5.42372 -1.91703 0.160876 -0.235313 -0.958513
-1.85493 7.25456 -1.33642 -0.184299 0.720785 -0.668209
0.932392 -3.94428 -0.457318 -0.223956 0.947396 -0.228659
4.33849 6.13935 -1.30266 0.43791 0.619682 -0.651329
-2.3422 6.40194 1.82554 -0.140345 0.383606 0.91277
7.78975 1.70174 0.324701 0.963998 0.210594 0.16235
-4.00296 -0.129865 -0.142227 0.996944 0.0323432 -0.0711133
4.52938 3.21912 1.95028 -0.180628 -0.128376 0.975138
2.23678 -7.50761 -0.798379 0.261795 -0.878698 -0.399189
-3.32679 2.23891 -0.199949 0.825463 -0.555532 -0.0999743
2.84182 -2.83368 -0.229279 -0.703452 0.701437 -0.11464
6.02933 2.70096 -1.90577 0.276826 0.12401 -0.952884
-5.41377 -1.98869 1.98644 0.10913 0.0400877 0.993219
7.41022 -1.26265 1.30332 0.747734 -0.127409 0.65166
1.35632 -4.02211 -0.95849 -0.280452 0.831668 -0.479245
0.893634 -7.88873 0.489448 0.109137 -0.963431 0.244724
4.00676 6.39305 -1.27018 0.41021 0.654516 -0.635088
1.55915 -7.84378 -0.10511 0.194691 -0.979456 -0.0525552
-4.28722 -6.51054 0.881334 -0.493694 -0.749719 0.440667
-5.59805 -3.09753 1.96002 -0.174069 -0.0963163 0.980012
-4.05295 1.44041 1.05567 0.800309 -0.284427 0.527833
-2.8987 7.31211 -0.720514 -0.343778 0.867197 -0.360257
5.8446 -4.33288 -1.54047 0.512328 -0.379813 -0.770235
7.89464 -0.00245343 0.640571 0.947321 -0.0002944 0.320286
4.70455 2.07554 -1.80663 -0.392478 -0.173152 -0.903316
7.11111 2.14402 -1.40101 0.683266 0.206006 -0.700507
0.685631 -3.96277 -0.29347 -0.16864 0.974695 -0.146735
-2.80154 -5.47152 -1.99459 -0.0335071 -0.0654408 -0.997294
-0.993091 -7.21298 -1.5359 -0.087362 -0.634524 -0.76795
6.24829 3.91528 1.45365 0.582 0.364691 0.726826
-7.68846 -0.975448 -0.968084 -0.868086 -0.110136 -0.484042
6.234 5.00356 0.15923 0.777394 0.623955 0.0796152
3.96789 1.67957 -1.06752 -0.778744 -0.329634 -0.533759
-4.00316 0.15601 -0.157382 0.996143 -0.0388213 -0.0786908
-0.21462 5.12861 1.80236 0.0181229 -0.43307 0.901178
-5.23054 -3.57189 1.97195 -0.137827 -0.0941206 0.985974
3.13501 -5.6806 -1.93949 0.117959 -0.21374 -0.969743
7.73813 -0.126865 0.987573 0.869466 -0.0142547 0.493787
0.230989 4.24658 0.973393 -0.047447 -0.872282 0.486696
-1.9964 5.25914 -1.96459 0.0664872 -0.175148 -0.982295
-6.21252 -2.1765 1.91322 -0.274986 -0.0963389 0.956609
1.05766 -3.93373 0.536988 -0.250114 0.930244 0.268494
-4.57705 -0.521652 -1.43481 0.692178 0.0788884 -0.717403
5.26473 -5.34452 -1.3205 0.52706 -0.535048 -0.660251
2.56744 5.78242 -1.97312 0.066304 0.14933 -0.986562
-1.4986 -6.48912 1.88799 -0.0742467 -0.321497 0.943995
-0.884414 -7.78472 -0.795939 -0.103559 -0.911535 -0.397969
-5.2237 0.320952 1.84731 0.382501 -0.0235014 0.923656
4.24307 -2.32848 -1.62922 -0.508476 0.279038 -0.81461
-7.53475 -1.34771 -1.12391 -0.814244 -0.14564 -0.561957
-1.94581 7.24484 1.32107 -0.194746 0.725097 0.660536
-7.41934 -2.89285 -0.381034 -0.914619 -0.356617 -0.190517
-0.257456 -5.83088 -1.99331 0.00360462 0.0816376 -0.996656
1.3332 -6.47054 -1.90584 0.0611926 -0.296991 -0.952918
1.43775 -7.36844 -1.31444 0.144342 -0.739748 -0.65722
3.98813 -0.893638 -0.583535 -0.933345 0.209139 -0.291767
-4.30929 -6.57152 0.739101 -0.509547 -0.777042 0.369551
-0.696744 -3.93942 -0.0474658 0.174112 0.98444 -0.0237329
7.65735 -0.136493 1.11765 0.829153 -0.0147797 0.558827
1.99403 4.31598 1.56472 -0.261219 -0.565397 0.782362
1.39361 -7.87047 0.168322 0.173737 -0.981189 0.0841608
-3.03248 2.67009 0.400255 0.735346 -0.647469 0.200127
4.65526 2.43428 1.85538 -0.330847 -0.173003 0.927691
-3.02456 -5.61655 -1.96373 -0.0898843 -0.166913 -0.981866
-0.682 -7.67843 -1.03947 -0.0755841 -0.850978 -0.519734
7.0662 -3.28879 0.883941 0.81326 -0.378512 0.44197
3.86655 3.2819 1.77146 -0.353906 -0.300393 0.885729
5.91778 -2.33378 -1.96709 0.16807 -0.0662814 -0.983544
1.04607 3.87439 -0.228776 -0.258951 -0.959093 -0.114388
3.54202 -4.75446 1.99873 -0.0212657 0.028545 0.999366
5.87989 -3.24245 -1.86796 0.312904 -0.17255 -0.933979
-3.17789 -2.87897 1.03405 0.634362 0.574692 0.517023
7.594 1.78997 -0.867427 0.877017 0.20672 -0.433713
2.21889 -3.81336 -1.21575 -0.399343 0.686304 -0.607875
-6.20914 1.01053 -1.97874 -0.143528 0.0233591 -0.98937
7.55155 2.39058 0.556883 0.915666 0.289871 0.278442
3.34615 -2.20348 -0.161111 -0.832466 0.548188 -0.0805554
1.94789 4.45883 1.64725 -0.227038 -0.519704 0.823627
3.08759 -2.59912 -0.377343 -0.751289 0.63243 -0.188672
4.02363 2.92585 1.71735 -0.414516 -0.301422 0.858674
5.63131 -4.29986 1.67996 0.431269 -0.329301 0.839981
-7.85544 -1.34864 -0.343031 -0.970976 -0.166699 -0.171515
-4.20152 1.97861 1.47022 0.61334 -0.288838 0.73511
5.70576 0.468521 1.981 -0.137056 -0.0112541 0.990499
-2.9076 7.16298 -1.00249 -0.325454 0.80177 -0.501243
-5.40222 -0.404239 1.91324 0.290526 0.0217396 0.95662
-4.63769 -6.4094 0.589027 -0.560212 -0.774225 0.294513
3.88639 5.02202 1.96911 0.107155 0.138467 0.984553
-7.95394 -0.852078 0.0469966 -0.994036 -0.106488 0.0234983
2.42141 -4.5076 -1.79442 -0.208976 0.389023 -0.897212
-2.14671 6.85865 1.60985 -0.177244 0.566287 0.804924
-0.867353 4.20321 -1.04017 0.172614 -0.83649 -0.520086
0.437117 6.4764 1.93876 0.0165367 0.24501 0.96938
4.04156 -3.17193 1.80453 -0.339193 0.266208 0.902264
3.41355 3.50735 1.66654 -0.385602 -0.396199 0.833269
-0.409898 -7.70028 -1.03531 -0.04548 -0.854381 -0.517653
-7.79508 -1.56039 0.445629 -0.955897 -0.191348 0.222814
-0.676618 3.97528 0.358839 0.16507 -0.969825 0.17942
-0.874412 -5.61094 1.97402 0.02474 0.158752 0.987008
0.289096 4.42785 1.24815 -0.0509071 -0.779703 0.624077
4.60418 -0.371471 1.4468 -0.688193 0.0555243 0.7234
-4.35248 -3.81162 -1.98847 0.0806667 0.0706426 -0.994235
5.84201 -5.45161 -0.194054 0.727664 -0.679037 -0.0970272
0.304937 -3.99925 0.208136 -0.0756149 0.991692 0.104068
1.65715 -5.06218 -1.8832 -0.104764 0.320027 -0.941598
-5.86304 2.05599 1.98862 -0.100537 0.0352551 0.994309
-0.0544085 -4.22641 -0.924989 0.011413 0.886549 -0.462495
5.37996 5.21718 1.32944 0.536327 0.520099 0.664718
4.7733 3.361 -1.99342 -0.0662829 -0.0466714 -0.996709
1.29041 6.89983 -1.72067 0.093705 0.501041 -0.860335
-6.59973 2.46902 1.70439 -0.490054 0.183334 0.852195
-5.45188 3.04659 -1.98489 -0.107099 0.0598483 -0.992445
7.10446 1.92674 1.46541 0.656821 0.17813 0.732705
2.17848 -3.87809 1.26156 -0.380034 0.676529 0.630779
-4.89563 -6.15255 -0.728402 -0.579881 -0.728763 -0.364201
4.38101 4.17051 1.99941 0.0176275 0.0167805 0.999704
-1.7763 -6.29248 1.92617 -0.0731331 -0.259071 0.963086
-4.29131 0.307858 -1.05733 0.846656 -0.0607391 -0.528664
7.88979 0.297503 -0.638343 0.947024 0.0357097 -0.319171
-6.32131 3.95663 1.36958 -0.617714 0.386639 0.684792
4.59327 2.40092 -1.82548 -0.362067 -0.189254 -0.912738
6.85649 2.26132 1.58498 0.579196 0.191023 0.792491
-4.73828 0.469213 -1.57035 0.616257 -0.0610255 -0.785177
-7.65849 2.17537 0.390769 -0.943407 0.267971 0.195384
-6.44141 -3.69306 1.40336 -0.61811 -0.354381 0.701679
-7.84817 -0.368896 0.743076 -0.927394 -0.0435912 0.371538
0.609206 -7.74766 -0.928189 0.0694359 -0.88306 -0.464094
3.79194 1.43899 0.469116 -0.90886 -0.3449 0.234558
-6.95738 2.34278 1.4836 -0.635555 0.214012 0.741801
4.93465 1.82246 -1.85823 -0.346884 -0.128111 -0.929118
4.14664 -1.40475 1.17026 -0.768063 0.260196 0.58513
-1.04495 -7.75295 0.82249 -0.121755 -0.903357 0.411245
-7.18509 -3.26391 -0.649257 -0.861155 -0.391189 -0.324628
4.6554 2.34688 -1.83886 -0.351151 -0.177022 -0.919432
-4.02559 -5.68744 1.75016 -0.279608 -0.395036 0.87508
-5.13329 5.72244 1.07354 -0.563398 0.62806 0.536772
3.8539 2.59396 -1.47156 -0.561815 -0.378143 -0.73578
-0.996192 -5.10449 -1.83338 0.0765425 0.392204 -0.916688
-0.00271094 -4.14936 -0.758366 0.000604549 0.925321 -0.379183
4.58021 -5.56779 -1.59274 0.384232 -0.467079 -0.796368
-4.10021 1.83598 -1.31432 0.687932 -0.30804 -0.657161
-2.80056 6.89238 -1.38834 -0.270965 0.666864 -0.694169
-1.79492 -6.0332 -1.97819 -0.0419944 -0.141154 -0.989097
-2.0003 -6.08993 1.95752 -0.0639758 -0.194775 0.978759
3.77182 4.78031 1.99801 0.0276173 0.0350015 0.999006
-1.31967 6.23334 -1.96519 -0.0384727 0.181722 -0.982597
-7.26998 2.89547 0.817336 -0.847908 0.337703 0.408668
7.21708 -2.37774 1.20177 0.759195 -0.250125 0.600883
7.84354 1.17227 -0.52208 0.954724 0.14269 -0.26104
4.57279 -3.84984 -1.99987 -0.00856877 0.00721406 -0.999937
-0.000758983 6.61807 -1.9021 -3.54412e-05 0.309035 -0.951051
7.83504 0.887399 0.668024 0.936581 0.106077 0.334012
-2.38414 6.53577 1.75615 -0.163987 0.449547 0.878075
3.66062 2.28118 1.07461 -0.715781 -0.446051 0.537305
-5.33336 2.07865 1.98088 0.128522 -0.050091 0.990441
-0.065904 7.45549 -1.37139 -0.00643405 0.727861 -0.685695
-2.605 3.34039 -0.942624 0.542372 -0.695484 -0.471312
0.653105 4.95736 1.73217 -0.0652949 -0.495618 0.866083
-2.89224 6.78084 1.4553 -0.26912 0.630949 0.727652
4.53846 2.71864 -1.86989 -0.304358 -0.182318 -0.934947
-7.16003 -2.00444 1.3928 -0.691085 -0.193468 0.696399
-3.06726 -4.93187 1.99075 0.0507311 0.0815709 0.995376
-1.83624 -6.57334 1.82192 -0.110981 -0.397287 0.910959
-6.32731 -2.12372 1.88294 -0.319581 -0.107266 0.941468
5.32988 -0.925253 -1.91087 -0.290854 0.0504914 -0.955434
-6.74437 -4.28758 0.180188 -0.840472 -0.534312 0.0900942
3.80179 1.72732 0.819924 -0.83041 -0.377293 0.409962
-5.06918 4.55537 -1.82629 -0.303199 0.272467 -0.913144
-0.172436 -6.77729 1.84185 -0.00991309 -0.389617 0.920924
7.89653 -0.544947 0.575821 0.955385 -0.065932 0.287911
3.02184 -7.33049 0.528483 0.367571 -0.891666 0.264241
7.22572 -3.33908 -0.398365 0.889572 -0.411081 -0.199182
1.40781 3.81946 -0.526903 -0.333627 -0.905144 -0.263452
4.40751 6.66621 -0.183838 0.549188 0.830628 -0.0919188
3.47713 -7.2035 0.0692754 0.434446 -0.900032 0.0346377
3.00329 3.83591 -1.65138 -0.347765 -0.444178 -0.825691
5.59072 -3.93565 -1.8164 0.342236 -0.240921 -0.908202
-0.983228 -5.55792 1.9681 0.0309886 0.17517 0.98405
4.89375 5.71293 -1.29704 0.495203 0.578097 -0.64852
-0.307507 6.82488 1.81882 -0.0187201 0.415479 0.90941
4.06687 -3.2964 -1.84793 -0.29713 0.240839 -0.923965
1.08619 5.57464 -1.97415 -0.0306497 -0.157304 -0.987075
7.48833 1.73375 -1.07517 0.82148 0.190195 -0.537584
1.52743 6.97133 -1.64557 0.121642 0.555182 -0.822785
3.37768 -5.82505 -1.86064 0.183968 -0.317266 -0.930321
6.59854 2.7492 1.63747 0.530012 0.220823 0.818734
5.75056 1.6375 -1.99989 -0.010023 -0.00285408 -0.999946
4.94637 -0.473235 1.71375 -0.51318 0.0490976 0.856875
7.19387 1.43575 -1.48855 0.654955 0.130715 -0.744277
-5.11384 -3.52352 1.98892 -0.0865444 -0.0596305 0.994462
4.64432 0.259245 1.47705 -0.673177 -0.0375766 0.738526
7.12846 3.61749 0.157146 0.888989 0.451137 0.0785731
2.04339 3.47665 -0.360079 -0.498427 -0.848031 -0.18004
-0.297389 7.50134 1.31463 -0.0298534 0.753023 0.657317
3.31462 6.0506 -1.78655 0.215965 0.394228 -0.893277
5.86714 4.87661 1.16005 0.626458 0.520695 0.580023
-3.91807 -1.52533 -0.88103 0.836584 0.325689 -0.440515
-7.21476 3.39879 0.313723 -0.893445 0.420892 0.156861
-3.88306 -1.27748 -0.586071 0.908215 0.298792 -0.293035
-4.24786 0.283807 -0.981386 0.869394 -0.0580858 -0.490693
-4.10785 4.80946 1.97342 -0.10553 0.123554 0.986711
-5.28895 -4.78634 -1.64801 -0.420099 -0.380177 -0.824003
-6.04693 5.07613 -0.639243 -0.725734 0.609222 -0.319622
-6.79094 2.88236 1.45017 -0.633924 0.269063 0.725083
3.78664 1.41849 -0.415378 -0.916032 -0.343149 -0.207689
4.15258 -0.00330657 -0.766197 -0.923707 0.000735519 -0.383099
-4.56736 -2.81122 -1.89591 0.27116 0.166899 -0.947954
-5.04416 2.64755 1.97688 0.134252 -0.0704654 0.988439
5.07726 4.08093 -1.93281 0.200327 0.161016 -0.966407
-3.60613 -6.9433 0.820589 -0.42033 -0.809309 0.410294
-6.03984 -3.46557 1.75264 -0.417835 -0.239748 0.876319
-4.159 6.53436 -0.976058 -0.468662 0.736331 -0.488029
2.81028 -3.43818 1.25228 -0.49345 0.603701 0.626141
7.39175 -1.24122 1.32826 0.737295 -0.123806 0.66413
4.29654 1.763 -1.47029 -0.627165 -0.257345 -0.735145
0.142574 -4.0083 0.207936 -0.0353545 0.993952 0.103968
-0.872916 4.74944 -1.62134 0.105839 -0.57586 -0.810668
7.8154 -1.679 0.158383 0.974622 -0.20938 0.0791917
-0.659297 -6.41823 1.94825 -0.0230941 -0.224821 0.974126
3.7623 7.01083 0.414628 0.462583 0.861997 0.207314
4.83606 -2.94518 -1.97128 -0.144216 0.0878278 -0.985641
-0.377439 7.93078 0.487197 -0.0461059 0.96878 0.243599
-2.68815 6.7047 -1.58209 -0.227659 0.56782 -0.791045
2.98292 5.60536 -1.9692 0.082125 0.154326 -0.984601
6.72829 -0.646334 1.85028 0.377891 -0.0363011 0.925138
-3.34436 6.77555 -1.25655 -0.344348 0.697636 -0.628274
6.24574 -2.48063 -1.86578 0.334729 -0.132944 -0.932889
3.09754 3.84509 1.69447 -0.333257 -0.413685 0.847233
6.50904 4.59742 0.351165 0.804112 0.567956 0.175583
-0.320014 4.14136 -0.768883 0.0711223 -0.920406 -0.384441
4.98167 -5.98466 -0.89866 0.571543 -0.686616 -0.44933
1.47203 3.74705 -0.320354 -0.360926 -0.918736 -0.160177
6.62764 4.41514 0.379792 0.817097 0.544326 0.189896
5.65073 1.99109 -1.99998 -0.00412004 -0.00145173 -0.99999
4.39486 -2.13358 -1.66061 -0.501352 0.243393 -0.830305
2.02896 -3.6138 0.746215 -0.454212 0.809 0.373108
-7.91638 0.920367 -0.346817 -0.978261 0.113734 -0.173408
-4.74026 3.74059 1.99963 -0.0150648 0.0118878 0.999816
3.52746 3.26028 1.60252 -0.439384 -0.406105 0.801262
-3.29551 -6.36921 1.62114 -0.269127 -0.520139 0.810571
5.58096 5.57467 -0.659263 0.667963 0.66721 -0.329631
-4.04757 0.286016 0.476792 0.968752 -0.0684557 0.238396
5.83597 -4.02065 1.67888 0.447525 -0.308319 0.839441
-7.514 0.758144 1.26128 -0.772153 0.0779084 0.630642
6.65899 -4.39855 0.278141 0.826293 -0.545801 0.13907
-3.77545 7.04636 -0.153853 -0.470882 0.878836 -0.0769266
-7.50227 -0.44636 1.30504 -0.756432 -0.0450052 0.652522
4.40639 -5.44588 1.72899 0.316166 -0.390751 0.864496
-3.04462 -2.62261 -0.270923 0.75068 0.646629 -0.135462
5.61548 -3.35716 -1.92502 0.232811 -0.139184 -0.962511
6.72465 3.04428 1.44606 0.629334 0.284902 0.723029
-7.722 1.9067 0.42685 -0.948474 0.234195 0.213425
3.28266 6.95094 1.07411 0.360225 0.762765 0.537055
4.58516 -6.2407 0.978956 0.516311 -0.702734 0.489478
-3.08604 -2.76387 -0.742114 0.69174 0.619526 -0.371057
3.20901 -6.79772 1.30323 0.32382 -0.685957 0.651616
-2.92587 -7.19545 0.935787 -0.332902 -0.818689 0.467894
-5.3855 -1.766 1.97219 0.157896 0.0517768 0.986097
2.3933 -7.6324 -0.0680764 0.299032 -0.953636 -0.0340382
-4.29078 1.94698 -1.52993 0.586517 -0.266137 -0.764963
4.63397 -0.140893 1.4628 -0.681632 0.0207247 0.731402
-3.47394 -3.17751 1.52664 0.476691 0.436016 0.763319
4.2854 3.41907 -1.93181 -0.202373 -0.161461 -0.965907
3.79 -1.42554 0.441026 -0.91294 0.343387 0.220513
4.56644 6.54395 0.284228 0.566449 0.811751 0.142114
3.27076 4.59487 -1.96735 -0.104356 -0.146602 -0.983676
4.30388 -1.55726 1.40531 -0.669077 0.242091 0.702657
-7.2113 3.45635 0.112663 -0.900339 0.431529 0.0563316
6.08659 -4.87448 -0.87611 0.701668 -0.561934 -0.438055
-5.50669 0.243787 -1.93957 0.243721 -0.0107898 -0.969785
-3.65201 -4.07635 -1.92932 0.175823 0.196253 -0.964661
4.83515 -4.61383 1.87966 0.247165 -0.235852 0.939832
4.72022 -0.868554 1.5996 -0.590356 0.10863 0.7998
4.11532 -1.50149 -1.17379 -0.760618 0.277515 -0.586895
-1.79055 4.66268 1.72896 0.180202 -0.469257 0.86448
5.11927 -2.00606 -1.93605 -0.23356 0.0915238 -0.968025
0.849639 -7.15541 -1.59573 0.0710821 -0.598632 -0.797864
-6.40539 -3.77161 -1.39486 -0.617551 -0.363626 -0.697429
6.55596 -2.34747 -1.75258 0.453581 -0.162412 -0.876292
0.33035 6.08137 -1.99796 0.00245008 0.0451033 -0.998979
2.89152 3.31872 1.20224 -0.524978 -0.602539 0.601119
5.42181 -0.883164 1.93474 -0.250068 0.0407339 0.967371
-1.69739 6.403 -1.90011 -0.0799681 0.301661 -0.950056
5.74347 -5.55008 -0.228434 0.714404 -0.690349 -0.114217
5.78013 4.61261 1.43317 0.545184 0.435063 0.716586
0.11674 -5.09989 -1.78668 -0.010284 0.449268 -0.893338
4.22566 -2.37322 1.63383 -0.502879 0.282428 0.816913
-3.13812 -5.72215 1.92955 -0.126503 -0.230669 0.964774
4.66957 1.22782 -1.62084 -0.566592 -0.14898 -0.810419
3.43597 6.21063 1.67182 0.265703 0.480267 0.83591
4.54662 -6.14546 -1.13825 0.48904 -0.661012 -0.569125
-2.59678 -3.04357 0.0572374 0.648796 0.760424 0.0286187
6.36279 -2.75267 -1.7692 0.428012 -0.185167 -0.884601
-3.94005 -6.94621 0.237457 -0.489889 -0.863662 0.118728
-1.97827 7.37625 -1.14912 -0.212015 0.790526 -0.574559
-3.70252 -3.39978 -1.74716 0.358477 0.329166 -0.873581
-1.82575 -3.5826 -0.288985 0.449289 0.881624 -0.144492
-1.75221 -5.01257 -1.87721 0.113843 0.325673 -0.938604
-4.43151 0.764589 1.31944 0.740568 -0.127774 0.659722
3.23437 4.29178 -1.89953 -0.188361 -0.249941 -0.949763
-2.49688 7.34802 0.948719 -0.283234 0.833524 0.47436
5.3192 -4.45017 1.76785 0.358665 -0.300067 0.883923
-2.95654 -4.42411 -1.88124 0.188614 0.282238 -0.94062
2.23365 -3.50562 -0.776157 -0.495241 0.777259 -0.388078
-5.63763 0.679532 -1.97398 0.159624 -0.0192403 -0.98699
6.09969 -2.89725 -1.85292 0.339994 -0.161491 -0.926458
-7.78081 1.63121 -0.444589 -0.954235 0.200051 -0.222295
-2.65605 6.81417 -1.5082 -0.238515 0.611915 -0.754102
6.86874 3.51261 -1.02931 0.763369 0.390379 -0.514656
1.80909 6.79535 1.71315 0.132754 0.498653 0.856575
6.32245 1.21633 -1.95136 0.215248 0.0414098 -0.975681
-6.95503 -1.61366 -1.64345 -0.555139 -0.128799 -0.821725
-4.40836 2.30192 1.71628 0.455104 -0.237642 0.858141
1.30153 -4.32442 -1.34085 -0.21384 0.710497 -0.670423
-6.34938 -4.16783 1.20652 -0.666736 -0.437655 0.603258
-5.95033 3.68789 1.73177 -0.425203 0.263532 0.865883
6.6831 1.35472 -1.82461 0.40135 0.0813572 -0.912304
-6.39015 -4.7898 0.236206 -0.794569 -0.595576 0.118103
-2.82567 -7.47337 -0.202483 -0.351845 -0.930567 -0.101241
-3.94529 2.87974 -1.66001 0.45051 -0.328836 -0.830005
-7.58332 -1.89418 -0.837275 -0.881083 -0.220079 -0.418638
-5.10873 5.18632 -1.53683 -0.449091 0.455912 -0.768415
-7.4844 -2.81972 0.0906834 -0.934828 -0.352193 0.0453417
-2.45364 -7.54496 -0.509943 -0.299038 -0.919546 -0.254972
7.85488 0.0989282 0.7464 0.927677 0.0116836 0.3732
-2.9005 -3.5168 -1.38649 0.458561 0.555997 -0.693245
-4.30957 -3.3073 1.91776 0.225153 0.172789 0.95888
-2.51671 4.34087 1.74213 0.246354 -0.424915 0.871066
1.68263 -7.81466 0.157851 0.209836 -0.974546 0.0789253
-2.48247 5.32502 -1.9961 0.0263575 -0.0565382 -0.998052
-0.62306 -6.49942 -1.92871 -0.0252507 -0.263401 -0.964356
-3.59192 -6.47915 -1.42021 -0.341386 -0.615797 -0.710105
4.95521 -3.08387 1.9933 -0.069418 0.0432022 0.996652
3.06625 -5.3464 -1.99332 0.0406142 -0.0708161 -0.996662
-4.66004 -1.6557 -1.69938 0.496856 0.176532 -0.849689
-5.86507 3.0976 1.89725 -0.279782 0.147765 0.948624
5.09399 5.27898 -1.48835 0.463838 0.480682 -0.744177
0.290099 7.99263 0.0916751 0.0362338 0.998292 0.0458375
0.0685801 -4.03332 0.366667 -0.0167128 0.982909 0.183334
2.91235 -4.98607 1.98722 -0.0569155 0.097442 0.993612
-3.35016 2.29556 0.49088 0.79969 -0.547956 0.24544
-4.09247 -1.60076 1.1925 0.747641 0.292438 0.596249
-4.49313 1.09143 -1.45123 0.668658 -0.162425 -0.725613
-2.69305 -3.42585 1.14132 0.507499 0.645594 0.57066
3.95341 6.94563 -0.179359 0.492681 0.865577 -0.0896795
7.78545 -1.81963 -0.137557 0.971451 -0.22705 -0.0687786
5.03075 -4.76407 -1.77138 0.337106 -0.319236 -0.885691
5.26233 -1.15151 -1.90369 -0.299493 0.0655356 -0.951845
4.10579 3.86194 1.96672 -0.132323 -0.124464 0.983361
5.24131 -6.03411 -0.171757 0.653347 -0.752172 -0.0858787
2.93976 -2.75926 -0.355451 -0.717529 0.673473 -0.177725
7.87741 -0.133268 0.68636 0.939135 -0.015888 0.34318
-6.26065 4.92758 0.360561 -0.772924 0.608348 0.180281
7.14987 3.54104 0.291134 0.886575 0.439084 0.145567
-2.00805 -3.55706 -0.575928 0.470777 0.833934 -0.287964
-2.25614 -4.06836 -1.47753 0.326857 0.589401 -0.738763
1.61194 6.57497 1.84597 0.0916353 0.373773 0.922983
6.86454 -2.10077 1.61568 0.5636 -0.17248 0.807841
1.19372 -7.82935 -0.560598 0.144683 -0.948946 -0.280299
-5.31937 -2.79963 -1.99997 -0.00492081 -0.00258986 -0.999985
7.25086 -0.232857 -1.55756 0.626973 -0.0201349 -0.77878
1.03659 -7.92013 -0.221665 0.128975 -0.985435 -0.110832
-6.82305 -2.77681 1.46041 -0.632826 -0.257544 0.730207
0.42684 -4.70392 -1.53944 -0.0576904 0.635767 -0.769722
-6.63404 -4.27861 -0.642126 -0.795887 -0.513305 -0.321063
-7.45304 2.90324 -0.0764665 -0.931119 0.362706 -0.0382333
6.25539 -3.94681 1.43177 0.590504 -0.372575 0.715886
3.72464 -6.35355 -1.46194 0.345117 -0.588707 -0.730971
-3.52753 6.50808 -1.42573 -0.334189 0.616557 -0.712864
-2.57107 3.93061 1.51714 0.356686 -0.545295 0.75857
6.96938 -3.91989 0.124623 0.869902 -0.489272 0.0623116
-0.97279 3.98547 0.631976 0.224973 -0.921704 0.315988
-5.73287 -1.90565 -1.99957 -0.0195946 -0.00651339 -0.999787
-6.61475 -1.53812 1.83684 -0.385332 -0.0896008 0.918418
-6.39107 -0.525487 -1.95697 -0.205627 -0.016907 -0.978484
-0.683471 4.32447 -1.17029 0.126594 -0.800986 -0.585145
-6.01994 -3.4537 1.76517 -0.407802 -0.23396 0.882587
-6.10812 4.67206 -1.06941 -0.671201 0.513398 -0.534707
1.44555 -4.46225 1.51174 -0.201774 0.622855 0.75587
-4.42956 -0.0698683 1.23913 0.784849 0.0123796 0.619564
1.88595 7.5646 0.879685 0.217251 0.871402 0.439842
5.91479 2.10342 -1.98063 0.130811 0.0465192 -0.990315
2.64765 -3.07133 -0.465836 -0.634975 0.736584 -0.232918
6.80484 0.55709 -1.82073 0.412423 0.0337637 -0.910366
6.35098 4.85381 0.162365 0.791905 0.605223 0.0811827
6.48092 -2.69354 -1.72132 0.470191 -0.195417 -0.860658
1.03555 -7.11203 1.60965 0.0855164 -0.587318 0.804826
6.21669 -3.05705 -1.77184 0.416237 -0.204684 -0.885918
-2.29725 7.54981 -0.649563 -0.275321 0.904829 -0.324781
-4.26817 6.62501 -0.679956 -0.509326 0.790571 -0.339978
3.90225 -1.07519 -0.434019 -0.9411 0.259303 -0.217009
2.02717 7.69011 -0.431903 0.248886 0.944151 -0.215952
-7.43848 -2.29147 0.9052 -0.852194 -0.262523 0.4526
2.32693 7.45112 -0.859254 0.269181 0.861952 -0.429627
0.938195 7.64435 -1.05081 0.103648 0.844515 -0.525405
6.31436 3.60002 -1.54624 0.550997 0.31414 -0.773122
4.06848 -0.56432 -0.64668 -0.937309 0.13001 -0.32334
1.33335 -6.08171 1.98717 0.0242165 -0.110457 0.993586
2.30077 -5.64386 1.99775 0.0178959 -0.043899 0.998876
-2.27866 -7.60001 0.508571 -0.277752 -0.926387 0.254285
-3.89383 5.63533 -1.81051 -0.241523 0.349544 -0.905255
-1.16796 -7.55132 1.14313 -0.125423 -0.810914 0.571566
-3.99962 -4.97072 -1.96356 -0.119124 -0.148047 -0.98178
2.32591 -4.92532 -1.922 -0.118093 0.250073 -0.960998
4.77392 3.57101 1.99963 -0.0153142 -0.0114554 0.999817
-0.38839 7.56307 -1.23514 -0.0403373 0.785483 -0.617568
5.88629 -3.44243 -1.82462 0.35349 -0.206729 -0.912309
-1.86332 6.79652 1.70386 -0.138456 0.505022 0.851929
-1.19642 -6.07012 1.99125 -0.0180712 -0.0916856 0.995624
-5.22204 5.45425 1.26262 -0.536329 0.560179 0.631309
3.99858 -0.21976 -0.135746 -0.996191 0.0547503 -0.0678728
-1.98601 7.28383 -1.26426 -0.203833 0.747572 -0.63213
-3.17142 -7.26836 -0.524019 -0.385949 -0.88453 -0.26201
7.17231 -1.30591 -1.52817 0.63468 -0.11556 -0.764086
-6.39028 -4.68775 0.541417 -0.776205 -0.569405 0.270709
0.898773 -4.182 1.01635 -0.180964 0.842029 0.508173
4.97146 6.26094 0.145868 0.62019 0.781054 0.0729338
-4.55471 1.83937 1.67823 0.504377 -0.203687 0.839116
0.498128 -7.00117 1.72102 0.0361546 -0.508152 0.860508
6.07428 0.115757 1.99858 0.0376863 0.000718184 0.999289
-2.4822 7.5628 -0.39934 -0.305566 0.931 -0.19967
-7.37606 -1.94206 1.16251 -0.786904 -0.207186 0.581253
-6.43565 -2.31366 -1.81556 -0.394719 -0.141904 -0.907778
-4.27281 -3.26655 1.90095 0.24691 0.188762 0.950476
5.36362 2.61466 1.99973 -0.0148398 -0.00723412 0.999864
-6.04647 3.69349 1.67991 -0.463093 0.28288 0.839955
-2.60964 6.02215 1.91904 -0.111981 0.258414 0.959522
-3.62101 -2.37887 1.10431 0.696819 0.457785 0.552157
3.70647 -5.45783 1.90869 0.167815 -0.24711 0.954345
-6.97651 -3.44393 -0.911432 -0.79817 -0.394014 -0.455716
-7.0106 2.025 1.52226 -0.623128 0.179989 0.761128
-5.23718 -2.83448 -1.99949 0.0197757 0.0107031 -0.999747
4.81144 -4.13082 -1.97064 0.129523 -0.111201 -0.985321
-3.32863 3.48558 1.61455 0.407598 -0.426816 0.807274
-2.01188 6.46983 -1.84356 -0.115125 0.370222 -0.921782
3.43982 -2.1866 -0.546019 -0.811867 0.51608 -0.273009
5.61682 -2.39747 1.99713 0.0492454 -0.0210198 0.998565
-4.99084 4.32313 1.90697 -0.227843 0.19736 0.953486
0.816288 -4.17091 0.968315 -0.168054 0.858691 0.484157
-7.74135 -0.967164 0.868611 -0.893817 -0.111669 0.434306
7.24693 3.23974 -0.493599 0.884687 0.395499 -0.2468
6.30167 3.90309 -1.41593 0.600412 0.371879 -0.707963
-6.42053 -0.86796 1.94181 -0.237309 -0.0320807 0.970904
-2.917 7.43973 -0.187969 -0.363414 0.926875 -0.0939845
5.78575 5.41465 -0.545299 0.702472 0.657416 -0.27265
-1.64952 7.16256 1.4756 -0.151491 0.657803 0.737798
1.97644 5.23568 -1.95883 -0.0712855 -0.188838 -0.979417
-6.8291 -2.84168 1.43148 -0.644774 -0.268299 0.715739
4.72912 0.930284 1.61462 -0.579029 -0.113903 0.807311
2.98082 4.1096 -1.77419 -0.271019 -0.373648 -0.887094
-6.98629 -2.87981 1.25584 -0.719545 -0.296603 0.627918
-1.24391 -7.82902 0.534614 -0.151206 -0.951674 0.267307
5.5398 5.6192 0.651808 0.663728 0.67324 0.325904
-7.36892 2.61658 -0.829907 -0.857395 0.304447 -0.414953
-1.82306 -4.94579 1.86244 0.12605 0.341961 0.931222
3.63413 5.36313 -1.94193 0.13419 0.198033 -0.970966
-6.44412 -1.16154 1.92347 -0.269636 -0.0486013 0.961735
-5.45406 1.35318 -1.96346 0.184689 -0.0458223 -0.981728
-5.79469 5.08355 -1.03974 -0.64216 0.563353 -0.519868
-0.717625 7.84597 -0.685868 -0.0855606 0.935455 -0.342934
7.77338 -1.29681 -0.68013 0.927583 -0.154745 -0.340065
0.888367 5.22009 1.87168 -0.0591269 -0.347433 0.935839
-5.20881 -1.92893 -1.94975 0.208885 0.0773545 -0.974876
5.96451 -3.03903 -1.87569 0.309229 -0.157558 -0.937845
3.69593 4.08257 1.93829 -0.165427 -0.182733 0.969145
-3.81733 -6.97612 0.434427 -0.468571 -0.856306 0.217213
6.67379 3.31792 -1.37427 0.650566 0.323433 -0.687135
0.0109289 4.03122 -0.352066 -0.00266873 -0.984381 -0.176033
6.69019 -1.62345 -1.79386 0.429701 -0.104272 -0.896931
-2.74092 4.87116 -1.95739 0.100687 -0.17894 -0.978694
-6.85675 3.76876 -0.819864 -0.799331 0.439346 -0.409932
3.62633 -1.85812 0.541381 -0.856745 0.438994 0.27069
-5.04082 3.4747 1.99625 -0.0503762 0.034725 0.998126
2.5208 -4.5892 -1.8483 -0.183922 0.334836 -0.924152
-0.0611719 4.5446 -1.37223 0.00979144 -0.727428 -0.686114
-5.86278 1.27262 2 0.000336636 -7.30729e-05 1
3.96344 0.563147 0.113957 -0.988448 -0.140444 0.0569785
-3.71215 1.81847 -0.718795 0.838034 -0.410528 -0.359398
-3.28105 3.8728 -1.77366 0.298703 -0.352575 -0.88683
-6.99363 0.629929 -1.7192 -0.508911 0.0458385 -0.859598
-3.03035 6.3907 -1.68795 -0.229816 0.484657 -0.843974
5.56948 1.61706 1.98992 -0.0962853 -0.0279557 0.994961
-4.85312 -2.94987 -1.97412 0.137023 0.0832867 -0.98706
-3.90093 -2.90614 -1.64637 0.455313 0.339203 -0.823184
-5.84285 -4.19722 1.60438 -0.484919 -0.348342 0.802191
0.760018 -7.58648 -1.16668 0.080964 -0.808181 -0.583342
-5.32468 5.96763 0.0938021 -0.665036 0.745337 0.0469011
-4.15141 -0.467805 0.824119 0.905427 0.102029 0.412059
6.04147 1.0109 1.99606 0.0618718 0.0103528 0.99803
-4.1176 4.30432 1.99953 0.0149788 -0.015658 0.999765
-3.69783 1.61268 0.368217 0.900954 -0.39292 0.184109
6.18456 -2.07725 1.93011 0.248406 -0.0834337 0.965056
3.07371 -2.62657 0.412936 -0.743857 0.635647 0.206468
0.363037 7.41624 -1.40322 0.0348392 0.711707 -0.701612
-0.442803 4.12676 0.761034 0.0986622 -0.919496 0.380517
4.60118 1.20071 -1.56545 -0.602198 -0.157148 -0.782727
5.6872 -1.53191 -1.99697 -0.053153 0.0143173 -0.998484
-0.0669753 4.48046 -1.30096 0.0113523 -0.759437 -0.650481
3.04003 -3.07335 1.08961 -0.589713 0.596176 0.544805
1.63669 -4.32934 1.45557 -0.242515 0.641497 0.727783
-7.9782 0.560685 0.0922113 -0.996479 0.0700297 0.0461057
5.09266 5.81057 -1.00965 0.568968 0.649174 -0.504825
1.94479 7.58436 0.807502 0.22724 0.886198 0.403751
-1.47221 -6.66233 -1.8228 -0.0887951 -0.401832 -0.911398
-0.356324 -4.0666 -0.567418 0.083701 0.95525 -0.283709
4.19229 -3.15103 1.8518 -0.301982 0.226978 0.925898
-3.83369 1.35736 0.512936 0.911129 -0.322596 0.256468
-3.93659 -5.62995 1.80099 -0.249191 -0.356382 0.900497
-7.55121 -1.9366 0.880825 -0.869651 -0.223033 0.440413
-2.47164 -6.90959 1.48621 -0.225386 -0.630079 0.743103
-4.82076 -0.871491 -1.66961 0.541767 0.0979399 -0.834803
5.55096 -5.31883 1.07292 0.609351 -0.583869 0.536459
7.76614 1.63798 0.49805 0.947649 0.199872 0.249025
2.99864 -6.21208 -1.78709 0.195177 -0.404334 -0.893543
-4.04977 6.76268 -0.675318 -0.48359 0.807544 -0.337659
4.24299 1.75787 1.42112 -0.650058 -0.269318 0.710558
0.709697 -5.24601 1.87117 -0.0473375 0.349914 0.935585
5.18707 3.59599 -1.97557 0.128057 0.0887771 -0.987785
-1.39359 -5.02852 -1.8408 0.104417 0.376772 -0.920402
-2.21663 3.79201 -1.18974 0.405653 -0.693955 -0.594871
-3.04017 -5.70712 1.94487 -0.10963 -0.205801 0.972434
2.25986 3.89923 1.33052 -0.37438 -0.645966 0.665258
0.727761 -5.17343 1.84347 -0.0540233 0.384035 0.921737
-7.67977 -0.862283 -1.00694 -0.858618 -0.0964055 -0.503469
-0.209056 7.58484 -1.21621 -0.0218723 0.793557 -0.608103
7.74068 0.343188 -0.971334 0.873286 0.0387176 -0.485667
-3.48625 -2.09277 -0.510149 0.829021 0.497655 -0.255074
4.09405 5.90371 1.61161 0.337458 0.486623 0.805804
7.65401 -1.65847 0.803204 0.895044 -0.193938 0.401602
-6.58759 -2.96008 -1.5832 -0.557357 -0.250444 -0.791601
-1.67596 3.67764 0.405407 0.406077 -0.891074 0.202704
-5.5523 -2.0333 1.9981 0.0408947 0.014976 0.999051
7.23675 2.69765 1.01518 0.807331 0.30095 0.507588
-2.34535 -4.78048 1.88259 0.148694 0.30308 0.941293
2.02825 3.67424 -0.865315 -0.435701 -0.789286 -0.432658
4.69967 -4.93694 1.82589 0.28137 -0.295576 0.912943
-0.660036 -7.85768 0.667404 -0.078906 -0.93937 0.333702
3.38393 -3.17224 -1.46487 -0.496711 0.465638 -0.732434
-1.45622 -7.4155 1.25513 -0.150025 -0.763974 0.627564
6.32986 -3.41686 1.60508 0.524993 -0.283391 0.802541
-1.40873 -7.07428 1.59003 -0.118466 -0.594907 0.795016
4.75826 6.32013 0.589733 0.574726 0.763376 0.294867
1.61013 -7.68431 0.757045 0.189822 -0.905919 0.378522
3.28737 2.27899 -0.0176072 -0.821795 -0.569715 -0.00880361
3.35989 -3.36321 -1.56441 -0.440326 0.440762 -0.782203
4.92241 2.36267 1.92574 -0.243383 -0.11682 0.96287
-2.70194 6.59847 1.65002 -0.214147 0.522972 0.82501
-0.909187 6.64317 -1.87159 -0.0478045 0.349295 -0.935793
-1.09326 6.84131 1.77161 -0.0732284 0.458242 0.885806
-7.26244 -2.00444 -1.28333 -0.739342 -0.204059 -0.641664
-2.51969 5.74792 1.98087 -0.0553923 0.126361 0.990437
-4.14045 -6.24687 1.32915 -0.412817 -0.622835 0.664575
5.85815 -3.35576 -1.85355 0.325927 -0.186703 -0.926776
4.1318 -4.85885 -1.96393 0.12247 -0.14402 -0.981967
5.63351 3.72114 -1.85343 0.313543 0.207107 -0.926713
4.25788 -5.49319 1.75989 0.291047 -0.375486 0.879944
-7.36243 0.884186 1.41309 -0.702618 0.0843805 0.706546
5.59141 5.60821 -0.562271 0.677569 0.679605 -0.281136
-1.5316 7.69183 0.777153 -0.179941 0.903676 0.388576
-7.64468 -1.59926 0.850463 -0.885907 -0.185331 0.425232
-3.21825 -3.2189 1.37934 0.511981 0.512085 0.68967
2.43748 4.7537 -1.88872 -0.15007 -0.292675 -0.944362
-4.58521 -3.96857 -1.99897 -0.0242469 -0.0209861 -0.999486
-6.60523 0.00908389 -1.90622 -0.30262 0.00041618 -0.953111
-0.388871 5.22552 -1.84996 0.0282016 -0.378965 -0.924981
-1.32967 -5.64789 1.9902 0.0226531 0.096221 0.995102
-1.73814 7.69415 0.659793 -0.208015 0.920814 0.329896
-5.69257 1.14306 -1.99059 0.0950052 -0.019077 -0.995294
0.455093 5.7113 1.98161 -0.0107471 -0.134873 0.990805
0.483076 4.49422 -1.34533 -0.07908 -0.735707 -0.672667
5.55819 4.04911 -1.79762 0.354295 0.258101 -0.89881
-2.68616 -3.60497 -1.31798 0.449409 0.60313 -0.658989
-1.49756 -4.2019 1.27704 0.258369 0.724942 0.638518
4.87584 4.47126 1.90291 0.226849 0.208026 0.951454
-0.988236 -6.69064 -1.84864 -0.0557611 -0.377519 -0.924321
0.405605 -7.98176 -0.178098 0.0505494 -0.994744 -0.089049
1.5311 -3.98333 0.999141 -0.310807 0.808597 0.499571
-3.54232 3.33385 -1.64635 0.413471 -0.389137 -0.823174
3.33802 -2.26485 0.366388 -0.813498 0.551961 0.183194
3.92755 4.4197 -1.99809 -0.0290124 -0.032648 -0.999046
7.92642 -0.944399 0.264141 0.984279 -0.117273 0.132071
4.39121 -1.0849 -1.34878 -0.716823 0.1771 -0.674389
-6.50441 1.53317 -1.87989 -0.332227 0.0783097 -0.939943
-1.41109 4.23824 1.28446 0.242136 -0.727262 0.64223
-1.63642 3.99021 1.07383 0.320108 -0.780546 0.536916
-1.88286 -7.43763 -1.09707 -0.205196 -0.810559 -0.548533
2.26267 -3.60028 -0.972317 -0.464995 0.739885 -0.486158
-7.83754 -1.07722 0.589263 -0.946711 -0.130119 0.294632
-1.27855 7.88658 -0.204199 -0.159192 0.981954 -0.1021
-5.25736 -5.99041 -0.343686 -0.64981 -0.740416 -0.171843
-3.68249 7.05345 0.413084 -0.452827 0.867345 0.206542
-1.56238 4.41055 -1.50174 0.220529 -0.622545 -0.750869
-4.93377 0.559871 -1.71163 0.513983 -0.0583254 -0.855815
3.96058 0.789463 -0.390504 -0.961831 -0.191722 -0.195252
-0.302745 7.7393 0.976837 -0.0341086 0.871943 0.488418
-4.0659 -4.76399 1.98261 -0.0854186 -0.100085 0.991306
2.19654 -5.38173 -1.99121 -0.0353839 0.0866937 -0.995606
-0.191381 5.43968 1.92088 0.00979152 -0.278307 0.960442
1.16107 3.88956 -0.482848 -0.277576 -0.929874 -0.241424
6.28267 2.24768 -1.8835 0.316663 0.113289 -0.941749
7.19073 -1.80631 -1.41429 0.685762 -0.172263 -0.707146
6.40184 -2.80687 1.7377 0.453407 -0.198795 0.868851
6.64374 -2.89032 -1.56506 0.570923 -0.248376 -0.782532
-2.47542 4.65077 1.86144 0.171841 -0.322851 0.930719
-3.43607 3.61391 1.72429 0.349115 -0.367185 0.862145
6.01386 0.560181 1.9996 0.0198618 0.00185009 0.999801
-7.27763 2.95618 0.747359 -0.859366 0.349075 0.37368
1.66157 -7.78662 -0.388383 0.204716 -0.959365 -0.194192
-6.3739 0.154492 -1.96438 -0.187832 0.00455271 -0.982191
4.00519 5.24423 -1.90827 0.181711 0.237925 -0.954135
-5.77675 5.37698 -0.648514 -0.692431 0.644513 -0.324257
7.49809 2.78055 0.10865 0.936223 0.347183 0.0543248
-7.934 -0.398182 0.470002 -0.970773 -0.04872 0.235001
0.295038 -4.3153 -1.09345 -0.0571139 0.835363 -0.546724
-7.84638 -1.26279 -0.455879 -0.961305 -0.154712 -0.22794
-7.97031 -0.688428 0.00656555 -0.996285 -0.0860531 0.00328278
5.30797 -5.27789 -1.33929 0.526646 -0.523661 -0.669644
-5.76081 2.68917 -1.96778 -0.162 0.0756222 -0.983889
0.327271 -4.626 -1.46416 -0.0480735 0.679523 -0.732078
7.56127 1.17466 -1.12739 0.816193 0.126797 -0.563695
5.72808 -1.97108 1.99917 0.0272934 -0.00939189 0.999583
3.88558 -3.46319 -1.83518 -0.296763 0.264503 -0.917589
-6.31367 3.62991 -1.53445 -0.556033 0.319679 -0.767224
4.89983 -4.20234 -1.94754 0.172716 -0.14813 -0.973769
4.83929 1.12398 1.71324 -0.502571 -0.116728 0.85662
2.84808 -7.04024 1.20729 0.298985 -0.739067 0.603646
-7.73286 0.390421 -0.981315 -0.870244 0.0439374 -0.490658
2.08618 7.47227 0.953596 0.236372 0.846636 0.476798
-5.14187 4.80785 -1.70865 -0.379633 0.354972 -0.854327
5.38764 4.06422 1.85458 0.298843 0.225436 0.927292
-2.89843 -4.33064 -1.83782 0.219402 0.327816 -0.918912
-0.237767 4.05055 0.476236 0.0569135 -0.969567 0.238118
-0.197579 7.7877 0.891713 -0.0227021 0.894817 0.445856
-5.14004 3.5443 -1.98511 -0.100259 0.069133 -0.992557
-4.78459 5.20194 -1.69115 -0.3614 0.392924 -0.845577
5.38118 5.17905 1.35767 0.529063 0.50919 0.678835
7.01012 -2.52791 -1.37541 0.682944 -0.246276 -0.687704
-0.681748 -3.94738 0.152425 0.169694 0.982545 0.0762124
-7.06523 -3.62972 -0.4738 -0.864164 -0.443959 -0.2369
-4.45837 5.6661 -1.59258 -0.374065 0.475396 -0.796288
3.93447 5.72933 1.75986 0.268952 0.391643 0.879932
-0.0626928 4.84831 -1.6354 0.00744294 -0.575595 -0.817701
-2.73984 -7.50961 0.157192 -0.341685 -0.936522 0.0785961
1.51315 -6.97295 1.64658 0.120373 -0.55471 0.82329
-6.14364 4.18131 1.39668 -0.591723 0.402722 0.69834
4.04006 1.74981 1.20361 -0.732859 -0.317412 0.601803
-2.65539 -3.98694 -1.59266 0.335293 0.503426 -0.79633
-4.98486 -5.9296 -0.974472 -0.561945 -0.668446 -0.487236
-7.19864 -2.8811 0.961381 -0.814108 -0.325829 0.48069
0.764816 5.22828 1.86741 -0.0518239 -0.354268 0.933707
-2.04029 7.21267 1.32775 -0.20356 0.719607 0.663874
3.96439 -1.1807 0.726143 -0.892998 0.265957 0.363072
-5.48382 0.39453 -1.93597 0.250355 -0.0180116 -0.967987
5.84834 4.94719 1.11532 0.633739 0.536089 0.557658
4.15647 3.3854 1.89507 -0.247839 -0.201863 0.947537
4.25453 0.303956 0.99553 -0.865107 -0.0618058 0.497765
-3.17661 -4.00745 -1.79292 0.275262 0.347257 -0.896461
-6.94358 3.9169 0.332508 -0.858856 0.484485 0.166254
1.16477 -7.61345 1.05028 0.128698 -0.841227 0.525142
1.27399 7.05217 1.62471 0.103671 0.573873 0.812356
-6.00041 -1.3677 -1.99404 -0.0752277 -0.017147 -0.997019
-7.99245 0.223299 -0.133082 -0.997395 0.0278659 -0.0665409
2.34099 4.60775 1.81888 -0.188352 -0.370732 0.90944
2.00082 -7.14524 1.40831 0.191463 -0.683744 0.704156
2.34899 -3.26888 -0.317349 -0.576159 0.801788 -0.158675
3.55711 -2.86624 1.39639 -0.557454 0.449184 0.698197
-4.31624 0.82555 1.19261 0.788467 -0.150807 0.596303
-2.18395 6.68275 -1.71404 -0.160065 0.489789 -0.857021
-5.14878 -2.07429 -1.94893 0.208278 0.083909 -0.974464
-4.17049 -0.357542 -0.841812 0.903789 0.0774831 -0.420906
6.58368 0.157952 1.91235 0.292705 0.00702238 0.956177
-6.79433 3.91431 -0.780961 -0.7977 0.459565 -0.39048
-4.62524 -0.659092 -1.49543 0.657378 0.0936756 -0.747716
2.76043 5.39043 1.99921 0.0127935 0.0249824 0.999606
-3.66519 -4.36571 1.97741 0.096361 0.114778 0.988706
6.00051 -0.281624 1.99999 0.00355379 -0.000166791 0.999994
6.78046 -4.20741 0.283623 0.841117 -0.52193 0.141811
-4.81773 -4.77832 -1.8393 -0.27885 -0.276569 -0.919648
-5.66485 5.37332 -0.855301 -0.655838 0.622087 -0.42765
5.71413 -1.17185 1.99302 -0.0817714 0.0167696 0.99651
4.34438 0.942444 -1.2583 -0.759617 -0.164787 -0.629148
-6.96543 -2.88411 -1.27739 -0.710926 -0.294366 -0.638696
-4.20741 3.83625 -1.97642 0.113142 -0.103161 -0.988209
-3.99473 4.97166 -1.96401 -0.118291 0.14722 -0.982005
-4.4323 6.43079 0.850232 -0.513663 0.74527 0.425116
2.86975 -5.35534 1.99856 0.0178978 -0.0333996 0.999282
-7.07749 1.34808 -1.59644 -0.591729 0.11271 -0.798219
3.83021 1.47082 -0.63326 -0.885505 -0.340039 -0.31663
3.26416 6.40724 -1.60687 0.270271 0.530516 -0.803434
2.83882 3.50334 -1.33316 -0.469302 -0.579158 -0.666582
7.40671 -2.94929 -0.331702 0.916188 -0.364818 -0.165851
-4.39955 -4.23655 1.9971 -0.0388001 -0.0373626 0.998548
6.55945 -3.60009 1.34251 0.649791 -0.356631 0.671257
-0.400567 5.79164 1.99052 0.00671077 -0.0970285 0.995259
-4.62438 -0.697159 1.49957 0.65429 0.098639 0.749784
4.08285 -0.00878208 0.569711 -0.958568 0.00206185 0.284856
5.36253 4.65871 1.66799 0.416537 0.361868 0.833996
-4.75928 -4.11037 1.97908 -0.10919 -0.0943027 0.989538
-3.52613 -4.06383 -1.90159 0.203044 0.234006 -0.950796
3.93623 -1.60355 0.968834 -0.810188 0.330055 0.484417
6.94509 2.8259 1.32515 0.693766 0.282288 0.662573
3.98752 -0.315669 0.000541514 -0.996881 0.0789172 0.000270757
6.0841 -3.5961 -1.69134 0.45945 -0.271565 -0.845671
-7.05852 2.01487 1.4843 -0.64449 0.183971 0.74215
3.64599 -1.87681 0.626581 -0.844356 0.434641 0.313291
5.12133 -5.38072 -1.39995 0.49237 -0.517307 -0.699975
5.91375 1.62334 -1.99561 0.0638935 0.017539 -0.997803
1.91039 3.61625 -0.592727 -0.44612 -0.844479 -0.296364
-0.986791 -5.00695 1.7877 0.0866989 0.439907 0.893848
0.339685 -5.23742 1.85341 -0.0243214 0.374999 0.926706
6.88194 3.41984 -1.07768 0.754396 0.374882 -0.538841
6.1995 -4.23787 -1.31197 0.623103 -0.425942 -0.655985
0.525184 4.10445 0.729813 -0.118168 -0.923515 0.364907
-0.2494 5.26982 1.86425 0.0171197 -0.361738 0.932123
-6.14813 1.61473 1.96794 -0.172473 0.0452979 0.983972
3.34792 -5.36348 1.97381 0.0854148 -0.136837 0.986904
7.11018 3.61908 0.294168 0.881503 0.448685 0.147084
1.98409 4.91187 -1.87255 -0.131563 -0.325701 -0.936274
1.66132 -4.85215 1.80022 -0.141122 0.412169 0.900112
-5.43726 0.992323 -1.94328 0.232623 -0.0424547 -0.97164
0.713664 -4.72897 1.58674 -0.0908383 0.601925 0.793369
3.99907 5.69147 1.75674 0.274797 0.391091 0.878371
5.74983 0.160958 -1.98457 -0.123911 -0.00346869 -0.992287
-4.16724 -6.67189 -0.718755 -0.494361 -0.791489 -0.359377
-7.2763 -0.0815759 -1.53944 -0.638339 -0.00715653 -0.769722
6.52946 3.72046 1.30563 0.65817 0.375022 0.652817
4.75338 -4.03869 1.98586 0.0904732 -0.0768703 0.992928
7.28655 -3.05889 -0.616618 0.877132 -0.36822 -0.308309
-3.77113 6.67377 1.10723 -0.40969 0.725028 0.553614
3.61027 4.74728 -1.99968 -0.0108607 -0.0142811 -0.999839
-6.9385 2.55775 -1.43325 -0.654413 0.241237 -0.716623
-1.30927 3.88997 0.637721 0.302341 -0.898286 0.31886
2.90577 5.83721 -1.93109 0.11597 0.232964 -0.965546
4.13915 -0.484591 0.801032 -0.910074 0.106547 0.400516
-2.26523 -5.99736 1.95734 -0.0725923 -0.192194 0.978668
-0.233651 -4.18557 -0.855258 0.050383 0.902549 -0.427629
4.16484 3.28793 -1.87583 -0.272256 -0.214933 -0.937913
-3.8926 0.972906 -0.221875 0.964168 -0.240981 -0.110937
-1.72572 -3.7815 0.775955 0.382649 0.838483 0.387977
-5.04482 -0.328481 1.76293 0.471251 0.0306843 0.881465
-4.42613 4.11866 -1.99947 -0.0168339 0.0156645 -0.999736
2.95527 5.3153 1.99833 0.0198295 0.035665 0.999167
4.31212 0.0279324 -1.07301 -0.843878 -0.00546635 -0.536507
5.2931 2.582 -1.99693 -0.0497537 -0.0242701 -0.998467
-7.6277 2.18311 0.50968 -0.929656 0.266075 0.25484
4.02745 6.82417 0.546121 0.488945 0.828475 0.27306
6.58837 -0.835319 1.89446 0.318012 -0.0403197 0.947229
-3.98343 4.19208 1.98818 0.0747954 -0.0787131 0.994087
5.00516 3.24201 -1.99967 -0.0153566 -0.00994695 -0.999833
0.526876 -5.77687 1.99006 -0.00904411 0.0991633 0.99503
-4.13651 -5.68459 1.71419 -0.303109 -0.416546 0.857096
-5.18758 -3.48068 1.98468 -0.102591 -0.0688346 0.992339
-7.04349 -3.36898 -0.85562 -0.815395 -0.390013 -0.42781
-1.73273 -5.23915 -1.94111 0.0756347 0.228692 -0.970556
-1.24418 -4.6109 -1.58157 0.159461 0.590958 -0.790785
-1.16694 -4.6737 -1.61274 0.143265 0.573793 -0.806372
-6.79311 -3.84254 0.862257 -0.785355 -0.444237 0.431128
1.64033 4.01027 1.10469 -0.315595 -0.771565 0.552347
-3.41531 2.27024 0.627595 0.790731 -0.525619 0.313798
-5.45285 3.6651 -1.91702 -0.236588 0.159021 -0.958508
3.62046 3.09512 -1.57168 -0.470068 -0.401861 -0.78584
-5.02629 5.71773 -1.18263 -0.53244 0.605685 -0.591315
-3.11485 -5.21532 1.99861 -0.019149 -0.032062 0.999302
-5.40829 3.7514 1.91345 -0.239107 0.165854 0.956724
7.9173 -1.14668 -0.0196743 0.989626 -0.143329 -0.00983717
4.70293 5.78778 1.36944 0.4596 0.565619 0.684721
-0.070101 7.89193 -0.647615 -0.00840371 0.946086 -0.323808
7.35425 2.97168 -0.51727 0.895621 0.3619 -0.258635
-5.92604 4.80895 -1.15643 -0.633531 0.514108 -0.578214
1.20918 -7.44562 -1.27226 0.123686 -0.761606 -0.636128
0.391108 -3.99864 0.265629 -0.0964833 0.986434 0.132814
-2.66787 5.59671 -1.98997 -0.0430416 0.0902933 -0.994985
5.43261 -1.42475 1.96286 -0.185558 0.0486641 0.981428
-1.13701 -7.30978 1.43055 -0.107411 -0.690537 0.715277
-6.13429 -0.225129 1.9952 -0.069162 -0.00253825 0.997602
-1.7292 4.54761 1.64693 0.201651 -0.53032 0.823467
4.41885 -6.6586 -0.18478 0.550583 -0.829652 -0.0923901
3.72642 -5.61352 -1.85894 0.20402 -0.307339 -0.929472
1.37442 -7.78934 0.594265 0.165917 -0.940311 0.297132
5.83532 3.13474 -1.90016 0.274859 0.147654 -0.950079
-7.65429 2.30974 -0.138669 -0.955058 0.288196 -0.0693345
-1.36075 7.72744 -0.768795 -0.1601 0.909179 -0.384398
4.27633 1.93196 1.51342 -0.595775 -0.269158 0.756707
3.52245 6.88098 1.00325 0.394198 0.770051 0.501627
1.00365 -7.25931 1.49514 0.0909626 -0.657923 0.747571
4.30728 -1.31382 -1.32649 -0.715844 0.218349 -0.663243
-4.12353 -2.04159 -1.42952 0.626757 0.310313 -0.714759
-2.52251 4.93335 1.94658 0.104516 -0.204404 0.973291
-1.80429 -3.68996 0.64677 0.415668 0.850084 0.323385
4.64688 6.49857 0.209002 0.578471 0.808981 0.104501
-0.682246 5.70227 1.98341 0.0152693 -0.127622 0.991705
-3.75912 -1.46045 0.361027 0.916812 0.35619 0.180513
0.277355 7.95586 -0.394581 0.0341558 0.97975 -0.19729
-6.8099 -1.778 -1.70944 -0.502253 -0.131133 -0.85472
-3.53526 -6.21609 1.63555 -0.284527 -0.500287 0.817776
-3.88062 6.98524 -0.191726 -0.4834 0.870135 -0.0958631
3.42522 3.70618 1.75812 -0.323556 -0.350097 0.879059
