# x y Mean_Curvature nx ny
-4.64596 -0.772101 -9.06772 0.122004 0.0564982 -0.99092
6.40553 9.61578 6.32426 0.0861599 0.993557 0.0736334
0.799192 -8.50164 -1.21821 -0.0781422 -0.990167 0.116033
-4.79177 0.111293 -9.06313 0.111652 -0.00833075 -0.993712
5.88785 4.65819 -9.60101 0.013831 -0.095478 -0.995335
-8.88153 -3.58424 0.286227 -0.983659 0.178546 -0.0231423
0.709097 8.42005 0.00456 -0.0734048 0.997302 -0.000479274
4.42745 9.35747 -3.41145 -0.117724 0.982649 0.143323
-1.29042 -8.99879 -7.17071 0.0908534 -0.953212 -0.288329
2.3109 -8.1865 8.62216 -0.142788 -0.608695 0.78045
-0.860626 3.82972 -8.95115 0.0658756 -0.167889 -0.983602
-8.76906 3.93797 8.39894 -0.766282 -0.140811 0.626884
8.69117 2.08275 -1.43445 0.979607 -0.161286 0.119818
-0.224007 8.83025 -3.31419 0.0185857 0.98263 0.184645
7.03203 8.97511 -0.0856994 0.258332 0.966034 0.00651021
-3.86685 -9.50185 -5.38658 0.130106 -0.990585 0.042578
0.826521 8.10818 8.47649 -0.0642561 0.625702 0.777411
3.78968 -9.10178 -2.29032 -0.156014 -0.977841 0.139595
-5.20637 -6.1933 -9.63314 0.0564238 -0.0541482 -0.996937
-7.69096 9.06074 3.12456 -0.405254 0.901763 -0.150311
4.89368 -2.13446 9.22705 -0.0948693 0.126877 0.987371
5.96419 -9.0019 8.34624 0.0253874 -0.816629 0.576604
7.83139 -3.51781 9.06018 0.439729 0.147863 0.885875
8.89818 6.71306 8.37977 0.787757 0.152087 0.596916
9.22292 1.89219 -5.20553 0.99085 -0.116924 0.067416
0.788683 -8.52715 1.42827 -0.0759388 -0.988395 -0.131561
-9.10354 -2.74455 -3.37997 -0.975151 0.153109 0.160116
-5.66292 -9.5655 -6.92837 0.0126619 -0.983644 -0.179678
-1.89496 -8.95923 -3.27018 0.130868 -0.976382 0.171906
2.58297 -9.14832 7.21987 -0.141941 -0.949548 0.279663
9.14799 6.25557 -1.10632 0.99398 0.0782781 0.0766556
1.38129 -3.50465 8.9392 -0.102121 0.173565 0.979513
-4.21989 8.36822 8.84276 0.129504 0.606947 0.78412
9.39059 4.24292 -3.80175 0.982772 -0.124113 0.136953
9.27205 -6.80328 2.75911 0.974169 -0.175871 -0.141649
8.7085 1.46792 2.16235 0.979022 -0.121052 -0.1639
4.11807 -9.31256 -7.43454 -0.127811 -0.942386 -0.309148
-9.3014 -5.02302 -7.73969 -0.920738 0.0757542 -0.382757
-7.01435 9.52702 -6.35606 -0.198699 0.976775 -0.0801799
-9.65265 5.41871 5.61212 -0.999148 -0.0372204 -0.0178372
7.11513 8.76999 -8.41275 0.241093 0.748932 -0.617231
-9.16729 -6.04337 -1.18976 -0.99583 -0.0412877 0.0813537
0.247894 -4.4091 -9.01616 -0.018883 0.140242 -0.989937
-8.02828 9.17258 -6.35986 -0.470795 0.878113 -0.0852639
9.35406 -3.0735 4.85367 0.985441 0.142792 -0.0922798
6.50718 -2.31797 -9.25473 0.119166 0.13173 -0.984097
-0.0290063 9.12242 -5.7171 0.00212453 0.999965 0.00814217
-3.39602 8.46007 8.60854 0.153264 0.669714 0.726631
8.21841 8.26061 8.25464 0.568316 0.582847 0.580781
-8.7631 -4.41593 -8.50415 -0.74876 0.1201 -0.65187
8.32025 -8.39448 1.67109 0.687009 -0.717101 -0.117407
3.65111 -2.64099 -9.13151 -0.156036 0.14873 -0.97649
-2.89228 9.15794 7.34146 0.146742 0.940403 0.30677
8.55648 -8.77266 -4.79802 0.662418 -0.742951 0.0960507
-2.51501 -1.79737 8.81219 0.169769 0.135229 0.976162
4.58262 -9.47915 -4.17351 -0.104117 -0.987009 0.122364
-5.45782 1.67868 -9.2126 0.0404875 -0.107177 -0.993415
2.94842 9.35847 -5.12427 -0.141307 0.987451 0.0705179
-1.15271 -0.583605 8.47923 0.111919 0.0584131 0.991999
5.50351 -2.26394 9.28447 -0.0338333 0.128941 0.991075
-9.01335 0.384653 4.36614 -0.989326 -0.0292462 -0.142751
-2.5158 2.97897 9.00025 0.154239 -0.165422 0.974087
-1.5608 -2.16491 8.72068 0.126668 0.162897 0.978478
5.17262 -9.11461 0.658452 -0.0747444 -0.996066 -0.0475924
-0.185645 -0.949689 -8.44231 0.0192081 0.0957015 -0.995225
9.08846 -6.49107 -0.4875 0.991326 -0.126475 0.0357205
6.06906 -0.928001 -9.14687 0.0459942 0.0652461 -0.996809
1.52891 1.26189 8.58654 -0.134492 -0.113672 0.984373
-7.07962 -0.936489 8.99571 -0.266881 0.0682525 0.96131
-8.73249 -1.6056 7.86282 -0.852944 0.11237 0.509765
5.99715 -9.65791 -5.79188 0.0272601 -0.999626 -0.00212587
9.41861 -6.55316 -3.51177 0.983149 -0.118715 0.139016
-5.11583 -9.59886 4.8795 0.0645533 -0.994549 -0.0818803
-1.02621 8.50751 1.08853 0.0986935 0.989641 -0.10426
8.4936 -0.461157 1.32608 0.990982 0.0459201 -0.125883
-7.28116 1.56981 -8.99277 -0.316028 -0.106863 -0.942712
-8.78637 3.54966 -8.2843 -0.78762 -0.150392 -0.597526
4.59483 9.32236 3.0394 -0.110563 0.983353 -0.144198
6.62355 7.00312 9.50121 0.125434 0.197715 0.972201
1.85227 -8.93921 -3.18916 -0.129875 -0.976284 0.173212
-8.85378 -0.588564 7.43528 -0.9246 0.0449994 0.378273
6.35745 9.43533 -3.48747 0.0845657 0.986725 0.138642
-8.94632 1.09466 3.69906 -0.981831 -0.0826612 -0.170807
8.47111 -1.79323 -8.2589 0.743186 0.123306 -0.657625
1.91088 8.85512 2.66958 -0.138601 0.975481 -0.170961
6.84234 9.02709 -0.422034 0.207521 0.977724 0.0314722
-8.37457 -7.89676 8.41389 -0.620283 -0.461324 0.634373
-5.01058 -9.62122 5.33643 0.0720721 -0.99637 -0.0453039
6.45091 9.24667 2.20759 0.109159 0.985699 -0.128384
8.82415 3.00465 -1.14025 0.979086 -0.181958 0.0910067
-3.61688 -9.47557 -5.62345 0.135643 -0.990598 0.0178092
-9.38492 4.45224 3.58115 -0.983353 -0.115136 -0.140575
-5.30352 9.19176 -1.5535 0.0583164 0.99313 0.101454
4.5462 9.5822 6.13994 -0.10209 0.993639 0.0475247
-3.73489 9.11249 7.79668 0.143029 0.894818 0.422899
4.93363 -9.33148 2.86663 -0.0872349 -0.986078 -0.141565
-4.94087 -3.34658 9.40125 0.0840113 0.141179 0.986413
8.66214 2.29999 0.741732 0.982274 -0.175402 -0.0661267
9.27235 -2.15827 -5.54965 0.991653 0.12573 0.028578
-5.82786 -2.87747 -9.37276 -0.00712202 0.139702 -0.990168
-4.63648 9.37598 3.37528 0.10555 0.98416 -0.142434
6.66805 -7.57416 -9.33653 0.137499 -0.337282 -0.931308
8.9414 3.84412 -0.655158 0.984391 -0.168468 0.0509131
5.04822 -6.54348 9.59463 -0.0697305 -0.109213 0.99157
-2.0682 2.98514 8.93318 0.141155 -0.171246 0.975064
9.55455 -4.92268 -4.55553 0.991482 0.0802133 0.102615
8.72534 -1.86576 7.93411 0.839711 0.125243 0.528393
-6.34847 9.38805 -3.14973 -0.0848262 0.986316 0.141372
-9.35338 -4.53644 3.2961 -0.983218 0.112312 -0.143764
-4.31416 4.59331 9.49726 0.116175 -0.1028 0.987894
-9.1952 -4.87883 1.88948 -0.988209 0.0975628 -0.118
4.71153 9.58971 5.20744 -0.0927535 0.994043 -0.0572291
1.01985 8.56435 1.55389 -0.0947435 0.985861 -0.138212
8.48708 -8.2607 -1.89719 0.74529 -0.654336 0.128012
6.98956 9.19349 -2.47963 0.222478 0.965087 0.138242
-6.25211 -4.98259 9.61497 -0.0630098 0.0742213 0.995249
8.74821 -2.62381 -1.08225 0.979542 0.17988 0.0902226
-2.23523 -0.632591 -8.64377 0.174081 0.0572573 -0.983065
-8.66457 -4.71895 8.65964 -0.704362 0.101689 0.70252
-5.10836 9.57489 -6.73128 0.0653667 0.98763 -0.142526
-0.301743 9.10229 6.31523 0.0221556 0.995572 0.0913506
-9.29972 3.83321 3.55776 -0.97915 -0.141537 -0.145714
-9.10204 -3.83334 -2.24316 -0.978243 0.155088 0.137801
2.97709 -0.92008 -8.80027 -0.183919 0.0754622 -0.98004
-9.0279 -7.00821 1.10907 -0.96611 -0.245712 -0.0790998
-5.60224 9.34956 -7.69713 0.0200759 0.930056 -0.366869
-9.10524 4.11584 1.94212 -0.981277 -0.146685 -0.124815
-8.45787 8.92161 -5.71648 -0.616416 0.787388 0.00714516
8.95273 2.27296 7.62407 0.902879 -0.137909 0.407175
-0.737846 -9.11871 6.31656 0.0529622 -0.994461 0.090787
6.40997 8.89577 -8.44443 0.0954258 0.782219 -0.615652
9.00052 -7.34917 1.82821 0.935875 -0.331417 -0.119582
3.71328 8.90151 0.0614512 -0.174876 0.984578 -0.00493514
-9.09406 -0.073981 5.11105 -0.996633 0.00547335 -0.0818088
-9.18449 6.00271 1.36997 -0.995208 0.0344094 -0.091522
-9.05145 -3.98819 -1.66116 -0.981383 0.155074 0.113315
6.22205 8.61416 -8.77097 0.0642753 0.675938 -0.73415
1.8531 8.76199 -7.871 -0.124303 0.853901 -0.505374
7.57077 9.39615 -5.96082 0.331631 0.943106 -0.0239298
-9.50147 -5.34956 -7.186 -0.970699 0.0452575 -0.235996
3.17102 9.27308 -4.05456 -0.148054 0.97939 0.137389
8.10894 1.62761 -8.56883 0.603731 -0.114686 -0.788895
-8.71084 -2.51323 -0.880952 -0.98079 0.179694 0.0759038
-3.80145 -9.07941 -2.11702 0.157525 -0.978376 0.134042
1.21705 7.70737 -8.77431 -0.0892636 0.46268 -0.88202
-2.20199 -0.280846 8.62293 0.174537 0.0259885 0.984308
6.1396 9.65254 5.82602 0.0463093 0.998908 0.00613765
0.574817 8.58219 7.94249 -0.0452279 0.824992 0.563332
-1.4044 5.65762 -9.19064 0.0932972 -0.0158749 -0.995512
-9.04654 -1.5333 7.09087 -0.959274 0.103848 0.262697
-6.25975 8.82144 -8.5539 -0.0703005 0.753196 -0.654029
-9.36871 3.10597 -4.96537 -0.986314 -0.142271 0.0833326
-9.65533 6.02755 -5.94332 -0.999303 0.0312281 -0.0204351
2.8127 7.39691 9.12683 -0.146543 0.324123 0.934596
2.87784 -1.09034 8.79598 -0.182264 0.0886074 0.979249
8.78268 7.86693 -1.97637 0.856284 0.50002 0.129453
6.7374 -2.52366 9.2498 0.164282 0.137594 0.97677
-2.73314 -9.0494 3.06463 0.156708 -0.974159 -0.162658
2.11611 8.89779 -2.74233 -0.14593 0.974723 0.169175
3.2693 -5.61998 -9.427 -0.139995 0.0185881 -0.989978
5.03746 -8.84299 -8.50701 -0.0772447 -0.764539 -0.639932
9.22489 -1.83367 -5.35087 0.992085 0.114175 0.0522651
8.70477 -1.86553 -1.7905 0.978678 0.147538 0.142905
-4.1795 -9.10374 -1.85474 0.144384 -0.982129 0.120728
5.40212 2.69754 -9.33919 -0.0440805 -0.138189 -0.989424
-5.58246 9.39182 -7.58318 0.0221362 0.941951 -0.335019
-7.94794 -1.76063 -8.70111 -0.536984 0.120536 -0.834937
8.54117 -5.51307 -8.84858 0.647558 0.0310115 -0.761385
8.54379 1.18302 -1.26447 0.987032 -0.110037 0.116878
-9.02248 -4.78355 -8.22695 -0.833973 0.0961268 -0.543368
-2.54856 -1.35703 8.76266 0.175745 0.109805 0.978293
9.49983 -7.0424 -4.84918 0.974684 -0.206456 0.0858339
-3.82009 -7.16185 -9.35032 0.135897 -0.244154 -0.960167
0.581942 -8.53167 1.56119 -0.0563729 -0.988316 -0.141614
9.02998 -0.159693 6.80023 0.980194 0.011977 0.197678
-3.87643 -9.4541 -4.71315 0.132109 -0.986422 0.0975647
2.91159 -9.03048 2.77382 -0.161873 -0.973906 -0.159073
-9.07869 -2.80251 3.17379 -0.974458 0.15613 -0.161417
-4.40446 -9.06155 -8.08534 0.118941 -0.856624 -0.502045
-8.68387 0.245083 -2.54053 -0.982744 -0.0219331 0.183666
4.91728 2.58905 9.29058 -0.0901907 -0.138151 0.986296
9.59942 4.84796 -5.16656 0.994635 -0.0839586 0.0604358
9.56313 6.49514 6.73199 0.984478 0.101855 0.142926
1.57902 -8.24682 8.44779 -0.112498 -0.660644 0.742222
4.39479 6.227 9.56128 -0.110059 0.0605374 0.99208
8.26331 -8.53184 -2.16111 0.644834 -0.751704 0.138311
9.0845 0.400343 -4.94182 0.994745 -0.0295603 0.0980258
-2.00671 9.25432 -5.57865 0.120561 0.992384 0.0252966
8.69962 2.5096 -8.13199 0.801179 -0.14754 -0.579952
-3.59415 9.45779 -5.24302 0.136727 0.988962 0.0570953
3.1668 8.96618 7.89662 -0.151916 0.868539 0.471765
8.15013 -9.05567 4.6552 0.519082 -0.848313 -0.104492
-1.80757 0.027479 8.55249 0.157617 -0.00265646 0.987497
6.85669 2.55294 -9.23226 0.190259 -0.138852 -0.971865
-5.99987 9.27569 2.18722 -0.0324272 0.991419 -0.126633
-3.20536 -1.0783 8.85584 0.181338 0.0851081 0.979731
3.44105 9.12213 2.79943 -0.158544 0.975424 -0.153011
-4.04515 9.51184 6.3385 0.124913 0.989023 0.0789291
-9.15809 6.54876 -1.56039 -0.985749 0.133242 0.102688
-3.86761 9.48578 -5.10076 0.130807 0.989026 0.0686822
6.31281 -9.22006 1.88393 0.0854569 -0.989504 -0.116532
-2.1042 9.26524 5.53932 0.123993 0.991832 -0.0299171
-7.48147 8.88349 -1.24831 -0.384311 0.918806 0.0900004
3.34787 1.87577 8.97033 -0.171118 -0.129198 0.976743
-9.57534 -4.71284 6.46268 -0.990967 0.092965 0.0966557
6.74665 -6.6622 9.54119 0.146399 -0.13113 0.980496
6.18864 -7.38234 9.44755 0.0556936 -0.283161 0.957454
-5.5641 9.12213 -0.266958 0.0290138 0.999389 0.0195032
-3.89397 -9.09656 -7.88099 0.139167 -0.884112 -0.44607
-8.6774 1.77808 1.69081 -0.979767 -0.144348 -0.13864
8.94236 1.7493 -3.28231 0.97699 -0.124072 0.173486
1.79903 -6.12616 -9.22328 -0.112586 -0.0534566 -0.992203
-0.67591 -8.60098 7.92352 0.0527973 -0.830572 0.554403
-0.839815 -1.00582 -8.48193 0.0829759 0.0984444 -0.991677
0.756644 8.924 -7.27285 -0.0566295 0.944015 -0.325006
-8.46427 -0.115766 1.16755 -0.993371 0.0118165 -0.114347
2.91541 -9.30055 6.77098 -0.142834 -0.975531 0.167148
-7.11524 -5.36556 9.51878 -0.219952 0.0435838 0.974536
-5.00981 -8.04051 -9.15671 0.0781022 -0.476682 -0.8756
-3.41921 -8.74215 -8.30881 0.152523 -0.776459 -0.611432
9.25711 -5.10715 -2.22417 0.98879 0.0755369 0.128796
-9.49954 -4.56051 -4.36323 -0.987973 0.104475 0.113993
-5.66655 -9.357 2.76921 0.0135324 -0.990239 -0.138719
-8.51961 0.987596 -8.07162 -0.790825 -0.0755747 -0.607358
-2.47415 8.9983 -3.00615 0.153013 0.974183 0.165995
-9.21408 -2.80488 7.10169 -0.958737 0.144131 0.245051
-8.57559 3.0214 -8.40932 -0.730054 -0.154842 -0.665616
5.38871 -9.43488 3.377 -0.0435829 -0.98927 -0.139446
8.80656 7.63723 -1.18346 0.894549 0.438459 0.0868059
-9.52585 -4.4677 -6.67332 -0.985035 0.107618 -0.134625
4.23962 1.0292 -9.02915 -0.147578 -0.0752816 -0.986181
8.26585 6.91347 -8.93749 0.560051 0.193611 -0.805517
-1.85397 3.66316 9.02175 0.125075 -0.164619 0.978395
-3.45016 9.10752 -2.69646 0.15961 0.975453 0.15171
0.0646716 7.5527 8.78812 -0.00506784 0.421034 0.907031
5.77569 6.56899 -9.61897 0.000254413 0.112558 -0.993645
-6.33279 -7.37644 9.43924 -0.0778835 -0.282421 0.956124
-3.08165 -9.39586 -5.45959 0.140763 -0.989356 0.0368912
0.277914 -4.23726 8.99148 -0.0213816 0.150755 0.98834
-9.19379 -6.24683 -8.00663 -0.883968 -0.0667535 -0.462758
4.1547 9.19645 -7.7519 -0.128612 0.907653 -0.399531
0.500411 -9.09417 6.44852 -0.0365916 -0.992388 0.11759
9.28163 2.35336 -6.28463 0.988188 -0.13186 -0.0780809
-5.93303 9.50691 3.85215 -0.0202509 0.991279 -0.130214
-0.669724 7.54268 -8.81168 0.0512701 0.413665 -0.908984
-1.52359 -8.50384 8.17189 0.109315 -0.766938 0.632342
-5.25313 -9.5475 6.94923 0.0535805 -0.981318 0.184781
9.42986 3.61143 6.57574 0.982952 -0.13741 0.12216
-7.89608 -1.2417 -8.66809 -0.53216 0.0916938 -0.841664
-8.2882 4.29479 8.91421 -0.575796 -0.125622 0.807885
-4.49761 9.32725 7.53337 0.110379 0.93737 0.330383
5.35941 -2.59357 9.32274 -0.0489382 0.136684 0.989405
-8.52837 -8.46452 3.04264 -0.710829 -0.686081 -0.154966
9.08839 6.45678 0.347638 0.992492 0.119604 -0.0255932
-1.84272 7.78861 -8.80736 0.123313 0.475791 -0.870872
-8.06293 -3.23955 -8.88171 -0.527563 0.152822 -0.835657
2.0196 -3.89994 -9.08202 -0.129627 0.155076 -0.979361
7.29354 9.29601 7.28177 0.271341 0.924255 0.268563
-3.68933 -9.22692 3.21955 0.148764 -0.977247 -0.151186
-9.25323 6.69884 -2.50307 -0.978166 0.1563 0.136974
9.39915 3.37223 -6.54979 0.982851 -0.140776 -0.119104
9.57797 -4.68902 5.05712 0.993089 0.0944522 -0.069658
-9.02452 -6.63415 8.21954 -0.83145 -0.135671 0.53878
0.314 -0.354091 8.40547 -0.0332269 0.037439 0.998746
9.04509 4.5659 0.511172 0.990931 -0.128828 -0.0382026
-9.47828 -3.83791 6.41509 -0.986985 0.131581 0.092451
-3.27453 -2.77003 -9.09018 0.16105 0.154611 -0.974761
3.057 6.38059 -9.37188 -0.141529 0.0908634 -0.985755
7.95045 8.91711 -7.57006 0.466789 0.809274 -0.356629
-3.22731 9.16319 -3.27434 0.155516 0.975489 0.155677
9.17568 -5.98211 1.26325 0.995842 -0.0313041 -0.0855537
0.416551 -6.66857 -9.0599 -0.0308273 -0.165742 -0.985687
8.75466 2.8099 -0.717023 0.980869 -0.184904 0.0608749
-6.60271 9.55665 -4.67789 -0.120798 0.988073 0.0954918
8.51481 7.05524 8.70092 0.653302 0.227245 0.722188
-9.61092 -4.98387 -6.31314 -0.994627 0.0742119 -0.0721818
6.94478 -9.13945 2.00858 0.218279 -0.967955 -0.124167
5.37231 -9.39914 3.13039 -0.0459478 -0.988956 -0.140908
2.62988 9.03307 -3.06592 -0.155241 0.974174 0.163965
-9.22741 -3.06264 -3.85309 -0.977883 0.150053 0.145698
-9.19591 -1.4761 5.58199 -0.994943 0.0971184 -0.0256367
-8.84472 3.47637 8.18485 -0.812199 -0.151085 0.563477
-6.93177 -5.50844 -9.56157 -0.180558 0.0291565 -0.983132
1.27395 5.26251 9.16275 -0.0865891 -0.0636101 0.994211
-9.5852 6.55473 -4.93855 -0.990705 0.111456 0.0779838
9.37201 4.06883 7.21049 0.959045 -0.128177 0.252595
3.44551 0.245564 -8.85519 -0.182102 -0.0201211 -0.983074
1.20174 -9.00617 4.0003 -0.0875891 -0.983473 -0.158457
-4.7131 -2.50841 9.2589 0.106389 0.137692 0.984745
7.33238 5.68202 9.47302 0.269938 -0.0107296 0.962818
-7.97164 9.08473 4.12379 -0.47026 0.872681 -0.131465
3.6745 -3.15085 -9.214 -0.149848 0.151651 -0.97701
2.3148 3.70502 -9.09169 -0.141116 -0.158298 -0.977255
-8.98447 -1.94488 -3.37601 -0.976608 0.131834 0.169873
9.06181 6.17948 8.24173 0.839019 0.0569131 0.541117
6.05089 9.33341 -2.63284 0.039136 0.989788 0.137069
-3.2936 -7.9809 -8.94116 0.151841 -0.496811 -0.854472
8.68754 8.34617 3.29665 0.761002 0.630218 -0.153951
-8.17091 8.39727 0.408927 -0.658106 0.752216 -0.0326757
4.08929 9.53636 -5.57076 -0.122676 0.992177 0.0231397
4.60161 7.55898 -9.33007 -0.104492 0.336064 -0.936025
-7.98165 -8.61145 1.24058 -0.565294 -0.819746 -0.0919735
-5.45821 -3.97585 -9.51878 0.035147 0.126703 -0.991318
0.690629 -4.93011 -9.09501 -0.0502098 0.0984788 -0.993872
-9.53225 6.05556 4.07754 -0.99171 0.0365369 -0.123194
-0.730722 -9.03932 4.44634 0.0542152 -0.989167 -0.136419
3.70634 2.25714 -9.08362 -0.158911 -0.139455 -0.977394
1.34704 -7.34842 -8.94529 -0.0951121 -0.340201 -0.93553
-0.554193 6.49338 -9.09073 0.0404689 0.126785 -0.991104
-0.117259 -4.96128 9.08095 0.00871597 0.0965012 0.995295
1.88313 8.92915 3.10916 -0.132143 0.975956 -0.173345
8.16965 -7.97036 8.54304 0.549029 -0.484068 0.681356
0.924798 -8.49037 1.0159 -0.090463 -0.990984 -0.0988338
-2.28041 -6.97531 9.16874 0.133222 -0.221928 0.965919
-8.70625 6.26798 -8.67758 -0.71059 0.0717305 -0.69994
-0.336073 -8.88307 -7.33548 0.0258461 -0.937242 -0.34772
-8.62128 -7.86749 -0.334692 -0.843551 -0.536394 0.0265393
-5.04097 -8.58744 -8.77329 0.0770552 -0.669602 -0.738712
5.95055 9.62037 -4.8893 0.0216053 0.99651 0.0806312
9.51503 -6.64754 -6.91558 0.97521 -0.129307 -0.179568
-9.15026 2.31554 -7.07164 -0.959976 -0.13484 -0.245488
-9.02494 -3.82265 1.66308 -0.980174 0.16153 -0.114747
6.6909 1.51948 -9.13239 0.16419 -0.101165 -0.981227
0.720409 -8.44695 -8.13415 -0.0565094 -0.767648 -0.638375
4.26884 2.59659 9.217 -0.132978 -0.142342 0.980844
-0.909006 -8.44447 0.387353 0.0916819 -0.994989 -0.039881
3.4022 9.37558 -6.748 -0.141419 0.977372 -0.157302
-0.236783 8.95987 7.094 0.0180049 0.961152 0.275433
-9.18718 7.84194 4.38633 -0.898419 0.422885 -0.11837
-5.93616 -0.630371 9.13505 -0.0246637 0.04529 0.998669
3.15922 -8.80148 -0.249482 -0.186556 -0.98222 0.0209894
-4.66864 9.4433 3.82954 0.1007 0.985898 -0.133655
-6.91233 1.66675 -9.10539 -0.214706 -0.109497 -0.970521
0.208737 8.60401 2.1037 -0.019549 0.985062 -0.171086
2.43445 7.18754 9.1358 -0.138657 0.273757 0.951752
9.26695 2.7656 6.83607 0.972816 -0.14192 0.182996
2.08968 8.60035 -0.133146 -0.17066 0.985251 0.0125064
9.41023 -3.19034 5.43147 0.989267 0.140639 -0.0396294
2.16128 -1.18184 -8.67572 -0.166984 0.101742 -0.980696
-5.37598 1.48504 9.18887 0.0504343 -0.0978458 0.993923
9.45306 -6.13276 -7.37383 0.95859 -0.0474786 -0.280805
4.57583 -5.48812 9.58911 -0.100346 0.0312061 0.994463
-7.47392 9.0175 2.28494 -0.359203 0.923142 -0.137049
-6.8518 1.98189 -9.15591 -0.196273 -0.122626 -0.972851
-3.4685 -9.45137 -6.0507 0.13818 -0.989713 -0.0370873
9.43615 -3.97964 -4.41919 0.984846 0.130447 0.11429
3.15869 -4.74826 -9.35617 -0.143241 0.0994516 -0.984678
2.39397 -8.81914 1.98968 -0.164473 -0.975595 -0.145474
-4.51809 2.14797 9.18719 0.122424 -0.129374 0.98401
-8.28617 8.24749 8.19918 -0.591688 0.578263 0.56171
9.3208 3.80012 3.7336 0.97976 -0.140942 -0.142148
-5.66219 -9.15009 0.888087 0.0155999 -0.99792 -0.0625539
-8.22107 8.58686 2.26848 -0.623865 0.768586 -0.141663
8.61991 -7.86727 -0.282466 0.843493 -0.536672 0.0224348
-6.92045 7.00069 9.4546 -0.183018 0.199344 0.962687
-7.67407 6.44508 9.32705 -0.363112 0.0979107 0.926587
-5.10115 9.10011 -0.437154 0.08251 0.996075 0.0320512
-3.41541 0.473411 -8.85642 0.182035 -0.0385544 -0.982536
4.03119 8.99232 -0.970328 -0.158658 0.984675 0.0724138
6.85896 8.1994 -8.99467 0.181276 0.5357 -0.824721
3.70047 -1.32407 -8.96761 -0.168826 0.0971337 -0.980848
-5.54253 9.55807 -4.27612 0.0259383 0.993002 0.115215
-9.12399 -4.15793 2.03924 -0.981276 0.143748 -0.128192
-5.55048 9.65237 -6.08247 0.0242456 0.998963 -0.0385386
-9.19709 -7.86452 -6.78067 -0.891064 -0.423956 -0.162069
-7.66107 -2.85807 9.02983 -0.403008 0.149198 0.902953
1.40549 -7.39 8.93594 -0.0986842 -0.352099 0.930746
-2.96251 -4.15983 -9.25627 0.147127 0.134848 -0.979882
-6.16636 -8.21332 9.08077 -0.0548175 -0.531195 0.845474
-8.39833 0.0686418 0.291074 -0.999494 -0.00731927 -0.0309626
9.05952 3.94875 -1.7818 0.980591 -0.155566 0.119331
-9.27007 -2.11487 -5.73346 -0.992242 0.124203 0.00537586
8.89915 3.66531 0.394652 0.983914 -0.175832 -0.031566
6.04022 -9.64149 -5.23667 0.0330413 -0.998008 0.0537338
-9.40535 -6.26181 7.50185 -0.946924 -0.0672085 0.314353
-2.31366 9.29041 -5.48728 0.130322 0.990832 0.0356041
-8.18574 -9.09672 5.33161 -0.522084 -0.851453 -0.049556
-0.441079 9.12537 6.01225 0.0320362 0.998799 0.0370783
-9.12978 -5.08747 -1.02233 -0.993997 0.0825084 0.0718491
2.12225 9.20136 6.70117 -0.126794 0.978824 0.160709
3.25133 8.94102 7.96817 -0.152056 0.856214 0.493738
4.81976 -2.69386 9.29611 -0.09723 0.140261 0.985329
-8.25176 -8.31509 -0.145659 -0.693722 -0.720147 0.011736
1.53885 5.94351 9.20255 -0.100291 0.0249179 0.994646
6.86431 -9.47566 6.94695 0.171098 -0.967249 0.187494
-0.774907 -6.63618 -9.08104 0.0560548 -0.157003 -0.986006
9.15553 2.67767 -3.76791 0.977159 -0.148089 0.152415
-1.01219 1.04093 -8.5012 0.0978208 -0.100414 -0.990125
0.245693 9.12356 5.90344 -0.0179479 0.999646 0.0196648
-8.53251 7.19218 -8.6377 -0.662986 0.260433 -0.701872
1.21022 4.69658 9.10516 -0.0845648 -0.116112 0.98963
8.05825 -8.7377 -2.43455 0.554968 -0.819065 0.145406
9.38033 5.0019 3.16558 0.986624 -0.080029 -0.142013
-0.896582 9.14292 6.10806 0.0632538 0.996607 0.052658
8.28222 -3.03631 8.68708 0.616222 0.154491 0.772272
9.48373 -4.49906 -4.28498 0.987095 0.108299 0.117961
2.62508 0.993674 -8.74058 -0.180715 -0.0836791 -0.979969
-8.96687 1.19509 7.24386 -0.946576 -0.0855103 0.310938
9.17114 -7.55038 -7.40339 0.889485 -0.341436 -0.303708
2.95604 9.07335 -7.59752 -0.149273 0.912679 -0.380439
-9.38845 -3.07442 6.19614 -0.988179 0.140996 0.0601949
-6.99218 8.98737 -0.234146 -0.247179 0.968808 0.0177058
-9.12386 0.250414 -5.89193 -0.999673 -0.0182894 -0.0178679
8.24601 -8.69824 2.94901 0.605936 -0.780462 -0.154018
-8.83781 -7.73374 -1.8517 -0.881348 -0.456085 0.123336
-5.60955 -9.20172 1.52811 0.0220449 -0.994769 -0.0997475
-9.37491 7.60029 -5.30619 -0.938774 0.340823 0.0504286
9.44026 -6.60618 7.27129 0.958047 -0.123886 0.258453
9.61788 5.45102 -4.90631 0.996233 -0.0345407 0.0795449
3.72434 2.70314 9.15258 -0.153393 -0.14888 0.976885
-8.46382 8.28158 -1.8699 -0.737103 0.663768 0.126853
-9.3227 2.55862 6.06272 -0.989879 -0.135822 0.0411293
-3.98688 -4.46611 -9.44249 0.129935 0.111741 -0.985206
6.81297 -0.280358 -9.02942 0.200611 0.020983 -0.979446
-9.53145 -5.10752 4.22588 -0.990736 0.0668896 -0.118188
9.27768 6.74982 2.73357 0.976218 0.164646 -0.141034
8.56604 8.83189 5.67841 0.656092 0.754588 -0.0118272
-8.22779 -8.88719 3.87561 -0.565964 -0.812096 -0.142073
4.99043 9.15164 -1.38526 -0.0903881 0.991507 0.0935106
8.3681 -7.82077 -8.47307 0.616749 -0.437213 -0.654573
8.70057 0.514624 -2.58037 0.981998 -0.0453362 0.18337
9.29049 6.53773 7.73808 0.916789 0.114571 0.382585
7.50502 8.81045 -0.145847 0.404396 0.914513 0.0113862
-1.29844 -5.07216 9.15082 0.0884332 0.0830297 0.992616
-4.47395 7.84836 -9.19547 0.113694 0.423293 -0.898831
1.22981 -2.09578 -8.66975 -0.10583 0.164028 -0.980762
-7.37005 2.92265 -9.15324 -0.314126 -0.147169 -0.937905
9.38244 6.27285 3.06845 0.987316 0.0725947 -0.141196
7.55055 -1.67711 8.90196 0.39815 0.113996 0.91021
-0.683984 5.42466 9.13123 0.0490792 -0.0462663 0.997723
-7.60541 0.744613 -8.78673 -0.434603 -0.0569079 -0.898822
2.5358 -6.84851 -9.23141 -0.138476 -0.188622 -0.972238
7.29451 3.02267 9.19314 0.291294 -0.146941 0.945281
-9.10115 5.1555 0.318255 -0.996753 -0.0770454 -0.0234013
-9.10428 -3.67806 2.43083 -0.976876 0.157728 -0.144345
0.032377 0.0351806 -8.39368 -0.00346362 -0.00376352 -0.999987
7.62627 -9.35516 -5.1417 0.349147 -0.934784 0.0653875
9.07416 -0.605507 -4.77219 0.992654 0.0445582 0.112485
4.62745 -7.44258 -9.37247 -0.102251 -0.304334 -0.947062
7.39003 -4.07978 9.32167 0.297908 0.128986 0.94584
-1.90614 9.09382 -4.07036 0.12372 0.981046 0.149135
7.86007 -3.27489 -9.00436 0.456128 0.151038 -0.877003
-9.46509 6.6655 7.14184 -0.964269 0.133937 0.228573
9.48597 -3.76249 5.34215 0.990002 0.132926 -0.0471889
-1.88538 5.56407 9.23947 0.115948 -0.0272848 0.99288
-5.30491 -9.63984 6.16376 0.0478238 -0.99761 0.0498648
8.76769 2.48927 -1.49046 0.977732 -0.173017 0.118769
-3.26397 4.41323 9.33411 0.144808 -0.119626 0.982202
-6.53392 -3.85204 9.4678 -0.112968 0.131617 0.984843
-0.801476 9.10708 4.99318 0.0576528 0.99406 -0.0923074
8.44855 0.852101 0.572495 0.99458 -0.0859743 -0.0584685
-5.19996 3.52734 -9.44593 0.0612785 -0.137977 -0.988538
-9.10318 -8.08318 -4.72077 -0.863058 -0.495144 0.099821
-0.327572 -8.99956 6.95145 0.0246512 -0.97144 0.236
-7.35079 9.4579 -5.34996 -0.275305 0.960275 0.0456016
3.44257 2.23136 -9.03607 -0.165328 -0.141442 -0.976044
6.10294 -0.762599 9.13528 0.0520038 0.0543957 0.997164
8.99732 -7.79492 3.04065 0.884493 -0.441371 -0.151206
9.63519 -5.15179 5.44977 0.99755 0.0608853 -0.0344517
-1.56579 8.53209 8.14451 0.111537 0.776668 0.619957
-2.69957 9.31977 -6.39256 0.138939 0.98572 -0.0951377
-6.38704 9.58476 -4.73999 -0.0842816 0.99227 0.0910913
-8.96321 2.17961 3.06362 -0.974886 -0.144151 -0.16976
3.69801 -7.46405 -9.24216 -0.141243 -0.324538 -0.935268
8.14904 8.36431 -8.2133 0.544441 0.618887 -0.566182
5.30074 9.19299 8.01318 -0.0521359 0.883862 0.464833
-3.36349 -5.10332 9.41639 0.140379 0.0705081 0.987584
9.22866 -7.87527 -6.54463 0.898056 -0.424117 -0.116707
9.55392 4.75541 -6.68045 0.98674 -0.0908596 -0.134495
8.29082 5.41426 9.03368 0.557908 -0.0413599 0.828871
-3.05869 9.22294 -3.82721 0.150298 0.977718 0.146555
-8.31145 8.27963 -0.665466 -0.712707 0.699494 0.052504
-8.56408 -1.64204 0.875818 -0.986055 0.144771 -0.0820792
-7.88593 -3.44593 9.02019 -0.459762 0.14941 0.875383
-2.70885 4.32157 -9.24041 0.143646 -0.129214 -0.981157
0.622998 -8.64044 2.21957 -0.056517 -0.98319 -0.173617
8.88383 3.6148 -0.0554749 0.984021 -0.177995 0.0044924
7.7232 5.90385 9.33989 0.374295 0.0165503 0.927162
-1.68451 9.15534 -6.6586 0.109111 0.981772 -0.155624
-2.99913 -9.29285 6.88024 0.143873 -0.971202 0.189914
-6.4302 -8.52773 8.82489 -0.0991715 -0.646415 0.756514
-8.07762 3.7009 8.95507 -0.517839 -0.145981 0.842931
-8.49961 1.45257 -0.00450104 -0.990727 -0.135866 0.000449454
9.11997 -1.0313 -4.96965 0.992938 0.0726983 0.0937517
9.25862 3.66622 -7.40099 0.940871 -0.141465 -0.307814
-2.82777 -9.36426 5.61037 0.139357 -0.990035 -0.0202654
-1.6209 -8.70956 -2.04869 0.131522 -0.978683 0.157735
8.65115 -1.55851 -7.98101 0.82384 0.110499 -0.555947
-3.00328 -0.0311285 8.7691 0.187746 0.00266778 0.982214
-4.533 2.62435 9.25478 0.117662 -0.140905 0.983006
-7.47076 -3.6682 9.2353 -0.326986 0.141973 0.934304
3.49705 8.60391 -8.48796 -0.151917 0.720717 -0.676379
-8.99309 7.80737 3.05242 -0.882573 0.445159 -0.151324
6.7572 -8.77307 8.52228 0.16161 -0.74274 0.649784
-1.65549 9.20551 -6.16026 0.106223 0.992553 -0.0596333
4.63928 9.15901 -1.80376 -0.116726 0.986415 0.115587
-5.3498 1.75564 9.21598 0.052619 -0.110836 0.992445
3.03257 9.35729 4.95564 -0.142268 0.986213 -0.0845202
-3.4615 -7.51028 -9.1891 0.146065 -0.342434 -0.928118
-8.83937 -5.41197 -8.54626 -0.758693 0.0419293 -0.650097
-2.76043 8.96973 2.5559 0.163535 0.973832 -0.157821
8.60363 -5.23903 8.7769 0.672947 0.0592771 0.737312
-8.9723 0.986429 3.9019 -0.983629 -0.074191 -0.164222
8.27377 -2.0866 8.50915 0.652007 0.135675 0.745975
-4.35854 2.81521 9.26085 0.126298 -0.144576 0.9814
9.38781 4.77148 -3.3612 0.985169 -0.0965521 0.141842
-3.06056 5.8125 -9.39878 0.140477 0.00502933 -0.990071
-8.72611 7.8197 -8.05316 -0.745223 0.433873 -0.506357
0.086959 -2.67013 -8.70587 -0.00770296 0.185977 -0.982524
7.46738 -9.15584 -3.15324 0.336825 -0.92981 0.148331
-8.66698 -8.09428 -2.17403 -0.804003 -0.578372 0.138078
-7.22656 9.49667 5.4807 -0.244989 0.968984 -0.0324129
4.53056 -5.82218 -9.58894 -0.102689 -0.00581602 -0.994696
-7.351 -1.01085 -8.91382 -0.3462 0.0742976 -0.935214
1.48712 8.50766 -0.255469 -0.137943 0.990116 0.0253311
-1.06273 -9.11259 -4.87129 0.0749474 -0.991911 0.10245
-5.7278 1.41155 9.19209 0.00637403 -0.0936548 0.995584
-8.96161 8.3202 6.60108 -0.808725 0.573672 0.129861
-4.26864 9.45602 -6.95541 0.118497 0.974172 -0.192219
5.27194 -8.07596 9.15726 -0.0550762 -0.485626 0.87243
-8.64218 2.28607 -0.411754 -0.983524 -0.176828 0.0375791
4.40294 -3.03442 9.29888 -0.122024 0.145466 0.981809
-0.995477 8.44579 0.121863 0.0998144 0.994926 -0.0125877
-6.8615 -0.112127 9.01662 -0.213076 0.00843998 0.976999
5.80056 3.49222 9.45969 0.00338679 -0.137644 0.990476
-5.72778 9.4989 -3.78041 0.00552454 0.991231 0.132029
-1.26893 -8.48507 -0.430151 0.121679 -0.991633 0.0431005
-0.440992 -9.11515 -6.20324 0.0321285 -0.997016 -0.0701906
-9.49062 -4.51947 4.32436 -0.987467 0.106976 -0.116041
8.93928 -1.99945 3.07559 0.975461 0.137416 -0.172023
6.52439 -9.54928 4.51579 0.107814 -0.988656 -0.104576
9.12322 -1.56313 4.56625 0.986803 0.104664 -0.123553
0.56975 -7.18821 -8.94212 -0.0429675 -0.301145 -0.95261
-1.38822 -9.07453 -4.33558 0.0965999 -0.98548 0.139636
6.22281 -2.74153 9.33948 0.0658456 0.138949 0.988108
8.30046 -8.494 -2.13262 0.660736 -0.737936 0.137402
7.93446 -8.59563 0.706428 0.558222 -0.827861 -0.0550893
-0.210409 8.59958 2.07791 0.0197559 0.985237 -0.170055
-6.77095 0.438747 -9.04211 -0.189858 -0.0325847 -0.981271
9.1499 -0.916635 -5.9699 0.997477 0.0644397 -0.0297895
-8.25953 8.30772 -0.154707 -0.696926 0.717035 0.0124638
-8.75424 0.698069 -2.81382 -0.980936 -0.0593311 0.185055
8.19135 6.38937 9.07536 0.525727 0.0909744 0.845775
-8.8339 2.22176 2.26619 -0.975108 -0.155783 -0.157783
-7.42738 -8.85312 -0.502678 -0.376403 -0.925652 0.0385988
8.93578 -2.38054 2.72596 0.974062 0.154344 -0.165472
-5.91351 -8.53124 8.8607 -0.018499 -0.643398 0.765308
4.16905 3.58934 9.35083 -0.129006 -0.142382 0.981369
-1.25112 -9.15037 -5.11757 0.0856047 -0.993213 0.0787409
-4.50332 -8.23977 8.97837 0.11425 -0.553468 0.824997
8.2776 5.73789 -9.05163 0.552049 -0.00445805 -0.8338
8.55552 -8.83135 5.41104 0.653519 -0.755742 -0.0420338
1.72612 7.66597 8.85486 -0.117137 0.4359 0.89234
1.99266 -9.04162 3.67347 -0.130708 -0.977962 -0.162805
8.89993 7.36435 -0.892709 0.933652 0.35197 0.0664198
4.06539 9.31445 -7.40654 -0.129647 0.944291 -0.3025
-8.93543 2.86303 7.85543 -0.87116 -0.150861 0.467248
-4.51154 -9.0508 -0.777632 0.131786 -0.989622 0.0572787
3.00267 -9.21677 -3.8435 -0.150068 -0.977744 0.146619
1.43691 -1.34105 -8.58368 -0.127725 0.120219 -0.984497
-9.51426 -3.89945 5.85681 -0.991613 0.128827 0.0103416
0.434487 6.36144 -9.10144 -0.031786 0.100177 -0.994462
8.18981 -7.43882 -8.82058 0.545065 -0.32286 -0.773734
3.89369 -2.66234 9.17259 -0.148499 0.146644 0.977979
9.1059 -5.10869 0.5763 0.995789 0.0815128 -0.0419451
6.61828 -9.26772 -7.76644 0.129556 -0.910843 -0.391894
-7.74796 -6.5469 -9.28519 -0.385595 -0.116289 -0.915311
-1.39365 -9.08765 6.8611 0.0952088 -0.974081 0.205184
6.55222 9.42771 3.57555 0.118092 0.983372 -0.137965
-2.89305 8.74865 0.123792 0.18766 0.982176 -0.0107171
-9.19525 1.58542 6.20505 -0.992387 -0.102957 0.0675863
8.0926 -8.89088 -3.39307 0.53298 -0.832429 0.151637
4.93552 3.27527 9.39056 -0.0848102 -0.141775 0.986259
6.85743 4.07357 -9.44991 0.17339 -0.125934 -0.976768
9.61835 -6.14712 -4.95006 0.99592 -0.047902 0.0764781
-7.85059 2.34788 8.85074 -0.482194 -0.141777 0.864516
-8.77246 0.0523358 -3.02047 -0.982218 -0.0044773 0.187692
-4.66427 -9.43239 -7.25136 0.0989581 -0.961657 -0.255778
-9.2988 2.82942 -4.65873 -0.983868 -0.142701 0.107886
9.05867 -8.24348 -5.30344 0.838591 -0.54223 0.0524632
2.25696 5.89371 9.28729 -0.128584 0.0166765 0.991558
-9.12226 1.83407 -4.32651 -0.983469 -0.118798 0.136659
4.90623 9.07886 0.323211 -0.101402 0.994557 -0.0239655
-0.903202 -8.43699 -0.127733 0.0915772 -0.99571 0.0132695
-9.0304 -1.28952 4.1026 -0.983909 0.092289 -0.15299
-8.66365 0.764876 2.29958 -0.982174 -0.0680559 -0.175224
-4.95917 7.22384 -9.46682 0.0785639 0.246829 -0.965869
-9.35496 5.0279 -2.97484 -0.986753 -0.0788287 0.141792
3.17147 -9.37972 -4.9841 -0.14207 -0.986499 0.0814614
-9.14506 -0.877349 -5.49805 -0.997393 0.0619479 0.0370139
-5.91201 9.12493 0.32027 -0.0209919 0.999507 -0.0233476
5.11774 9.34275 7.65454 -0.0675477 0.931542 0.357304
-4.4349 9.57402 5.47821 0.107832 0.993641 -0.0323864
0.732148 8.42277 0.138125 -0.0755773 0.997035 -0.0144829
-5.50034 9.65081 5.44086 0.0293177 0.998953 -0.035129
-9.57795 -5.0571 6.68442 -0.988545 0.0693415 0.134052
6.92002 -9.15752 2.10546 0.210942 -0.969154 -0.127451
5.11018 -1.28077 9.15237 -0.0793685 0.0873263 0.993013
-1.40557 -4.8325 -9.13805 0.0951763 0.104147 -0.989997
8.94195 0.21299 3.93706 0.985977 -0.0167672 -0.166038
-3.05643 -5.55061 9.39521 0.140607 0.0268646 0.989701
8.1401 -0.710813 -8.44128 0.640992 0.0558031 -0.765517
-8.07241 -0.633379 8.49074 -0.614642 0.0498954 0.787226
-9.08168 -0.548504 4.86308 -0.99367 0.0403396 -0.104849
-9.64121 -6.31823 5.64621 -0.997288 -0.0722037 -0.0142406
-0.121881 8.7532 2.91694 0.0105269 0.982168 -0.187712
6.50838 -9.60335 -5.12203 0.103102 -0.992622 0.0638118
8.14417 5.35871 -9.12326 0.507746 -0.0467554 -0.860237
5.08826 9.63677 -5.82165 -0.0658667 0.997812 -0.00565274
-9.07844 -7.02651 1.66762 -0.963576 -0.243686 -0.110171
-8.49346 -1.40712 0.0135519 -0.991159 0.132673 -0.00135845
9.19848 -7.159 2.80164 0.954823 -0.259664 -0.144528
2.58637 9.11699 -3.6124 -0.148225 0.976314 0.157607
-9.03113 0.240495 6.80064 -0.980108 -0.0180079 0.197647
0.318455 -8.94909 -3.96634 -0.0249413 -0.986056 0.164534
-4.60177 -7.29784 9.41314 0.103004 -0.267727 0.957973
6.86382 9.52854 -4.78702 0.169534 0.981461 0.0893968
-5.4514 4.95627 9.62179 0.0344557 -0.0759733 0.996514
0.318128 -6.40323 -9.09382 -0.0234045 -0.108698 -0.993799
-8.47028 8.14066 -8.09796 -0.656087 0.540676 -0.526517
1.79527 -1.86515 -8.70541 -0.143153 0.147461 -0.978653
0.953043 -8.7282 2.57639 -0.0809999 -0.980275 -0.180278
5.11107 3.23544 9.39867 -0.0703952 -0.141314 0.987459
-7.14433 -7.65712 -9.20743 -0.239994 -0.367471 -0.898536
-7.63065 9.16762 3.62203 -0.374274 0.916028 -0.144262
0.530776 -5.05696 9.09968 -0.0387934 0.0867826 0.995472
8.13255 7.12758 8.96862 0.518118 0.24181 0.820416
9.0689 -0.0959418 -4.84524 0.994228 0.00716616 0.107048
-2.38002 -8.97635 -2.9638 0.151293 -0.974252 0.167161
7.77888 8.7627 1.46117 0.482798 0.869522 -0.104104
-1.69566 8.89614 -3.06205 0.123772 0.976613 0.175804
6.35187 9.20411 -7.96938 0.0836629 0.888241 -0.451696
-3.69471 -8.96117 -1.26804 0.169503 -0.981059 0.0937689
-8.02382 -8.7885 -2.59181 -0.536401 -0.830791 0.148529
7.09097 9.53348 -5.7268 0.213958 0.976828 0.00547602
6.21122 7.65593 9.35384 0.0599732 0.356233 0.93247
4.6853 -2.51499 -9.25679 -0.108324 0.137984 -0.984493
-2.16324 8.61305 0.120968 0.173484 0.984772 -0.0112806
0.203935 -8.9993 4.29831 -0.0156568 -0.988972 -0.147276
1.23805 -9.06873 6.88169 -0.0864109 -0.973481 0.211822
-6.75324 9.57684 5.19043 -0.146383 0.987491 -0.0586034
-5.49095 6.19553 9.64549 0.0302904 0.0542406 0.998068
8.8637 -1.13077 -7.50205 0.915717 0.0827884 -0.393203
0.187944 -0.423446 -8.40497 -0.0199325 0.0447145 -0.998801
-8.85699 -7.39692 -0.227207 -0.929668 -0.367977 0.0175942
-1.64761 -8.57484 -0.988754 0.144219 -0.98531 0.0914574
-5.84791 -9.20003 -8.02665 -0.00946984 -0.883994 -0.467402
-5.76193 5.35659 9.65161 0.00133046 -0.0430115 0.999074
-3.03859 -9.17116 -3.51224 0.153479 -0.975989 0.154564
9.03392 3.6091 2.01552 0.977513 -0.164268 -0.132227
-8.21987 -8.82142 -3.48388 -0.576043 -0.80332 0.151168
0.400555 4.29265 -9.00305 -0.0305755 -0.147241 -0.988628
4.29906 8.45176 8.7887 -0.126022 0.635574 0.761685
-9.4503 5.27022 -3.52908 -0.988951 -0.0547637 0.137755
1.00117 9.15845 5.75953 -0.0697552 0.997562 -0.00200009
-5.24444 -9.46125 -7.3193 0.0553167 -0.961818 -0.268042
6.03599 3.02263 -9.38884 0.0359696 -0.140604 -0.989412
-8.74536 -7.64087 0.0708602 -0.891819 -0.452358 -0.00558155
-5.79484 -5.00717 -9.63127 -0.00249312 0.0720859 -0.997395
4.03018 -9.528 6.00544 -0.124796 -0.991737 0.0297261
-9.65844 5.63767 -5.61293 -0.999729 -0.0150866 0.0177187
8.92601 1.07945 -3.59078 0.981274 -0.0823759 0.174115
1.72957 -8.9354 -7.48713 -0.116076 -0.919189 -0.376322
-8.56272 4.8002 8.76736 -0.664693 -0.0959016 0.740936
-6.81146 9.13709 -7.97286 -0.169358 0.872246 -0.458808
7.68704 4.24106 -9.23606 0.378358 -0.124375 -0.917266
7.6055 9.0302 7.70148 0.362588 0.846803 0.389172
1.23759 -8.22331 -8.4215 -0.092443 -0.662301 -0.743513
-8.83203 2.45673 -2.00492 -0.975397 -0.165797 0.145297
-3.24087 -8.94497 -1.82646 0.173045 -0.976543 0.128139
-9.17097 4.8633 1.69256 -0.988941 -0.0999998 -0.109525
3.63268 -9.29061 3.69472 -0.145451 -0.978742 -0.144595
0.0560789 8.83255 3.337 -0.00465489 0.982826 -0.184475
3.70811 9.389 -6.91868 -0.137158 0.972168 -0.18994
8.79623 8.28505 7.32627 0.762887 0.576089 0.293472
-2.60341 -9.14396 -7.24478 0.142493 -0.947575 -0.286003
7.05813 -2.76777 9.21941 0.234832 0.143421 0.961397
-5.0972 2.12897 -9.24408 0.0769281 -0.125873 -0.989059
9.21302 4.88285 2.03204 0.987663 -0.0963823 -0.12342
-8.50723 1.40777 -0.522376 -0.989971 -0.131559 0.051478
-8.61497 -0.0800444 -7.86958 -0.842658 0.00638215 -0.538411
-2.16073 -9.27114 5.50158 0.125872 -0.991454 -0.0342795
-3.77948 9.30569 -7.30338 0.137994 0.950014 -0.280057
8.96771 7.09802 -0.533669 0.96053 0.275268 0.0401196
-0.645057 -7.00885 -8.99709 0.047935 -0.24985 -0.967097
-5.16156 9.3007 2.51951 0.0690288 0.988317 -0.135882
-5.6224 -9.20455 -1.55346 0.0203583 -0.994678 0.101004
7.28652 8.93173 0.942884 0.327116 0.942425 -0.0695012
-0.960019 2.32698 8.68361 0.0835619 -0.174466 0.981111
-0.170098 -1.30366 -8.48147 0.0171647 0.124955 -0.992014
-0.466541 -4.03893 8.96565 0.0361253 0.16074 0.986336
-3.51925 -9.3394 -4.15989 0.143698 -0.98105 0.129967
8.66133 -2.28286 -0.774329 0.982214 0.174647 0.0689541
-4.209 -9.23988 7.66705 0.125666 -0.919269 0.373031
9.00877 6.57909 -8.25667 0.825105 0.12538 -0.550892
-0.549803 -8.82457 -3.22749 0.0453613 -0.981739 0.184745
-6.99058 -9.53688 -5.20657 -0.193555 -0.979387 0.0577662
-9.37518 -5.62925 -7.63162 -0.937231 0.0169661 -0.348296
5.22693 -9.10921 0.421671 -0.0692944 -0.99712 -0.0308267
2.12778 9.264 6.10186 -0.124914 0.990982 0.0484904
-6.15681 5.21079 9.63528 -0.0489697 -0.0560187 0.997228
-0.95492 -8.9985 4.07686 0.0711446 -0.985101 -0.156571
6.42705 9.62868 5.48351 0.0892329 0.995523 -0.0311689
-3.04758 -7.68729 9.04955 0.150303 -0.406176 0.901349
-6.13872 -9.50281 -7.18675 -0.0478804 -0.970575 -0.23599
9.4162 4.98574 -7.41174 0.95303 -0.077297 -0.292847
-7.19141 8.9322 0.318014 -0.303497 0.952523 -0.0242621
-8.09107 7.17587 -8.97988 -0.505016 0.25313 -0.825157
9.3982 -3.28694 6.44924 0.984779 0.141101 0.101495
-8.65516 1.89321 -1.38895 -0.980965 -0.153526 0.1189
8.47323 8.22535 -1.6223 0.750844 0.650435 0.11475
-4.38099 2.56354 -9.2271 0.127236 -0.140908 -0.981813
2.51815 -8.92096 2.50434 -0.160454 -0.973992 -0.159984
-3.3964 -1.05048 8.88859 0.178801 0.081768 0.980482
6.91699 9.51992 6.60755 0.179631 0.976126 0.122106
-1.64924 -8.87492 -2.97687 0.122301 -0.976679 0.176465
2.77838 -8.52476 8.40847 -0.153033 -0.72113 0.675687
9.12165 6.09076 0.432035 0.998239 0.0503084 -0.0314247
9.28442 3.21187 -4.09169 0.979727 -0.147562 0.135503
6.40076 0.765568 -9.11183 0.107166 -0.0549659 -0.992721
-9.53507 -5.96728 -4.07839 -0.992095 -0.0245301 0.123065
8.56475 0.271205 1.86171 0.986764 -0.025967 -0.160071
8.76095 1.09365 -7.71006 0.880923 -0.0813909 -0.466209
9.0895 0.0183031 5.05939 0.996204 -0.00135671 -0.0870357
4.79004 7.72052 9.28791 -0.0931622 0.379746 0.920388
4.88789 9.59508 -6.41621 -0.0813003 0.992748 -0.088553
1.90592 1.4822 -8.66874 -0.153094 -0.124813 -0.980298
-8.80311 0.354042 -3.15359 -0.982041 -0.0296994 0.186317
-8.47475 8.45162 -7.69194 -0.652948 0.644544 -0.39777
9.26725 4.91426 -2.42251 0.986645 -0.0914345 0.1348
1.74215 -9.08972 -7.01607 -0.113587 -0.964121 -0.239935
9.0838 -2.37072 -7.32519 0.939605 0.138177 -0.313128
-9.37883 -2.96753 -5.43901 -0.989292 0.140537 0.0393877
-9.37803 6.82218 3.50571 -0.97511 0.171563 -0.140452
-7.37375 9.22065 -3.36036 -0.306201 0.940675 0.146191
-0.57373 2.29487 -8.65113 0.0518327 -0.176311 -0.982969
1.25269 9.17772 -5.71111 -0.0848723 0.996354 0.00872855
-2.3545 -8.72302 -1.31078 0.171765 -0.979113 0.108787
0.00253804 -6.36439 9.09417 -0.000187462 -0.101144 0.994872
8.72243 2.72741 -0.367545 0.982022 -0.186008 0.0321365
7.81009 0.834224 -8.68324 0.508071 -0.0640251 -0.858932
-3.10196 -6.20835 -9.39162 0.141027 -0.0620235 -0.988061
-0.919229 -8.12962 -8.46717 0.0709239 -0.632442 -0.771354
-8.7687 1.44164 -2.52786 -0.977896 -0.115366 0.174384
8.93103 -2.23859 -2.82725 0.974404 0.148983 0.168348
-0.245054 8.39814 0.160334 0.02609 0.999514 -0.0170878
8.33619 -8.91946 -6.76913 0.582273 -0.796426 -0.163292
-9.60976 5.77272 6.64568 -0.99204 -9.16972e-05 0.125921
-6.2484 1.94888 9.23296 -0.0736923 -0.118907 0.990167
-7.83417 -9.28123 -5.32268 -0.408504 -0.911413 0.0495132
9.40508 7.48926 5.16928 0.948129 0.31168 -0.0625078
9.44239 7.39538 5.30122 0.956704 0.286677 -0.0503243
8.93129 -2.67315 -2.40849 0.974019 0.164411 0.155741
-2.64529 1.78085 -8.83276 0.172282 -0.132833 -0.97605
8.32581 6.16604 9.00637 0.570516 0.0550283 0.819441
3.75545 -8.35724 -8.76872 -0.146141 -0.617461 -0.772907
7.16869 -9.49328 -5.13184 0.232981 -0.970331 0.0646333
-8.88608 2.98442 -1.72625 -0.976353 -0.175541 0.126173
-7.37883 -9.31653 4.01691 -0.295934 -0.946152 -0.131222
-8.74448 2.8341 -0.419114 -0.981761 -0.186648 0.0361729
9.01931 0.766442 4.29226 0.987635 -0.0572382 -0.145952
-2.05027 -2.2078 8.79752 0.150354 0.158179 0.975896
-9.578 -6.20374 6.78781 -0.986687 -0.0563859 0.152543
-8.11131 0.0162548 8.43908 -0.63571 -0.0013082 0.771927
6.53802 -6.63257 -9.57205 0.108767 -0.124939 -0.986185
2.54442 8.68214 -0.0784541 -0.184009 0.982899 0.00703996
-9.23631 3.68053 7.47324 -0.934184 -0.141717 0.32744
-6.33609 -6.39695 9.61564 -0.0754329 -0.0848203 0.993537
9.38696 -7.60063 5.89 0.940432 -0.339665 0.0146367
3.85781 8.37017 -8.77755 -0.143284 0.618811 -0.772362
-4.63622 -9.46745 7.09716 0.0999217 -0.970343 0.220116
5.54561 9.31559 -2.48793 -0.0284592 0.990525 0.13435
-7.19691 3.73527 9.32908 -0.253905 -0.138338 0.957285
-9.4306 -3.62075 4.83392 -0.986315 0.137732 -0.0906197
9.65962 5.64012 -5.70159 0.999857 -0.0148192 0.00812024
8.71765 8.68091 -5.44371 0.713371 0.699721 0.0386251
0.982695 1.58177 8.56477 -0.0914826 -0.140264 0.985879
9.55496 5.83146 6.98692 0.981428 0.00695077 0.191704
-4.2518 -9.29179 3.11685 0.129164 -0.980728 -0.146592
-2.32712 -9.14763 4.05274 0.138193 -0.97962 -0.145762
6.89831 2.70745 9.24627 0.197749 -0.141592 0.969973
-9.2805 3.06983 -4.21974 -0.980428 -0.146873 0.131109
-9.06664 0.852223 4.59892 -0.990185 -0.0620992 -0.125211
8.64929 1.57883 1.69166 0.98102 -0.133153 -0.140961
-0.617933 8.63115 2.16834 0.0563656 0.983508 -0.171859
-8.89879 -8.47223 6.14189 -0.780506 -0.623017 0.0515674
8.4099 2.38974 -8.44182 0.693232 -0.145516 -0.705872
-8.86726 8.46044 4.90708 -0.775726 0.624946 -0.0877036
9.42094 -6.57823 3.55012 0.982685 -0.123064 -0.138512
-2.76707 -8.76821 1.00912 0.182289 -0.979679 -0.0836657
3.85914 -9.4708 4.92055 -0.13169 -0.987805 -0.0830569
8.12062 -9.01223 -4.2111 0.518665 -0.845241 0.128662
9.33439 4.7942 -2.97728 0.984943 -0.0973144 0.14289
-3.92548 -1.94746 9.07663 0.154839 0.126603 0.979794
-8.16039 -8.54373 -7.97984 -0.54596 -0.681658 -0.487103
5.87147 4.31862 9.56545 0.0119608 -0.113229 0.993497
-8.06847 -8.92087 3.47483 -0.521702 -0.839774 -0.150359
-5.53584 9.5293 4.03968 0.0269463 0.991857 -0.124473
8.20592 -5.29185 -9.08182 0.52934 0.0535039 -0.846721
-9.41323 -4.05527 -7.0313 -0.969143 0.127561 -0.210928
2.19069 -4.77053 9.22191 -0.129262 0.104325 0.986107
-9.53102 5.65875 -4.0334 -0.992117 -0.0134371 0.124589
7.05723 -6.16865 -9.53074 0.207211 -0.05189 -0.976919
7.63036 8.84137 8.03006 0.375513 0.783831 0.49457
-9.07833 2.54165 3.41815 -0.9754 -0.149515 -0.16199
-1.93015 3.81528 9.05672 0.126882 -0.159057 0.979082
8.88709 3.25875 1.30527 0.978865 -0.178605 -0.0996199
4.55306 -6.88744 -9.50127 -0.103831 -0.175767 -0.978941
-8.95899 7.31717 8.04892 -0.820276 0.288476 0.493892
-9.44861 -4.79521 -3.7773 -0.986595 0.0925389 0.134416
-9.54177 5.3642 -7.00705 -0.979538 -0.0434987 -0.196501
-8.64476 -8.71922 -6.42718 -0.689679 -0.717346 -0.0987822
-8.85782 8.22937 3.71715 -0.807354 0.571587 -0.14652
9.38984 7.56434 -5.34699 0.942574 0.330756 0.046426
-9.27321 -7.83616 6.29101 -0.909316 -0.409629 0.0731397
7.04217 7.37115 -9.33462 0.212874 0.287801 -0.933732
1.44706 8.6124 1.55276 -0.126321 0.982874 -0.134172
-3.25368 -2.18061 8.99636 0.168579 0.141945 0.975414
2.83334 5.42021 9.35906 -0.139684 -0.0417598 0.989315
-2.80469 9.35975 -5.9824 0.139187 0.989852 -0.0286291
-3.05829 -0.80559 8.80725 0.184592 0.0662729 0.980578
-2.4806 4.97594 -9.28076 0.135804 -0.085928 -0.987002
-3.52889 -5.85126 -9.46444 0.137111 -0.0098423 -0.990507
-8.78344 0.978715 2.86235 -0.979761 -0.0806678 -0.183198
7.71143 7.26611 -9.14957 0.38562 0.270613 -0.88208
-2.46828 8.24818 -8.60242 0.147138 0.626302 -0.765569
-9.17792 5.55574 -1.28953 -0.995775 -0.0292157 0.0870516
6.79948 9.46455 -7.05478 0.158947 0.964666 -0.210132
9.4944 6.52187 -4.04534 0.986012 0.109702 0.125484
-5.70221 9.65497 -5.45095 0.00806396 0.999385 0.034112
-9.17259 -1.49526 5.11108 -0.991992 0.0989848 -0.0784485
0.463941 -8.09115 8.46654 -0.0369137 -0.624634 0.780045
2.6204 -4.07109 -9.19271 -0.144376 0.142036 -0.979276
1.81468 -5.98386 9.23107 -0.113046 -0.0306906 0.993116
1.6874 -8.60728 -1.24687 -0.144207 -0.983294 0.111078
1.12321 1.79321 8.60985 -0.10085 -0.151197 0.983346
5.2699 8.80496 8.57511 -0.0562888 0.747346 0.662046
6.89456 9.23767 2.64307 0.197738 0.970114 -0.140636
-8.25962 -8.68682 -2.94509 -0.611267 -0.776286 0.154058
-4.62284 9.043 -0.115427 0.125242 0.992088 0.00871011
-8.87026 -0.304286 -3.52005 -0.983318 0.0247257 0.180209
0.615521 7.77414 -8.69 -0.0479192 0.49778 -0.865979
-6.78778 -2.75155 -9.27372 -0.172591 0.14147 -0.974781
-3.20682 1.7763 8.93239 0.173972 -0.126167 0.976635
6.32846 -0.0574995 9.09781 0.0940778 0.00424207 0.995556
9.48138 -3.70485 -6.11156 0.989932 0.134088 -0.0453253
0.238842 -9.10955 5.2999 -0.0175363 -0.997964 -0.0613281
6.07018 -9.11979 0.328832 0.0468628 -0.998613 -0.024005
-8.65479 4.12034 -8.56658 -0.717125 -0.134323 -0.683878
-9.47285 5.41852 -7.30823 -0.963571 -0.0388251 -0.264618
3.97292 9.52118 -5.9902 -0.126675 0.991556 -0.0277437
1.59693 -9.20187 -6.11514 -0.103354 -0.993273 -0.0522191
2.64304 8.43839 8.46715 -0.151074 0.693321 0.704615
-2.00662 -6.87835 9.1536 0.123701 -0.202247 0.971491
-9.12503 0.257827 5.76182 -0.999821 -0.018821 -0.0017045
-9.54344 6.3711 -6.92295 -0.980273 0.0822522 -0.179721
7.67805 4.16876 -9.22984 0.377026 -0.127483 -0.917387
6.72578 -5.23786 -9.58354 0.141124 0.0544606 -0.988493
1.33489 -6.33142 9.16072 -0.0901355 -0.0915082 0.991717
2.85109 0.230888 -8.74232 -0.187324 -0.0200302 -0.982094
1.60155 3.95575 9.03949 -0.110582 -0.156994 0.981389
7.79204 -9.20777 4.36817 0.407743 -0.905313 -0.118973
-2.93304 4.71467 9.31985 0.143121 -0.103307 0.984299
2.25605 -9.07556 -3.65791 -0.139912 -0.977109 0.160261
-2.06595 -0.0758326 -8.59567 0.169761 0.00714502 -0.985459
-9.45345 6.1923 7.36145 -0.958949 0.0561763 0.277957
-8.73802 2.83377 0.174988 -0.982176 -0.187348 -0.0152264
-2.28444 -9.14414 -4.06957 0.136873 -0.979851 0.145458
-4.5248 -9.50919 6.82424 0.10514 -0.980971 0.163224
4.09135 -5.0464 -9.51072 -0.123684 0.0723254 -0.989682
-1.05208 8.31533 8.31243 0.0803171 0.70542 0.704224
0.455901 6.98797 -8.99439 -0.0341998 0.245261 -0.968854
4.4646 9.29921 -2.98545 -0.118921 0.982272 0.144914
5.20702 2.2551 9.26828 -0.0657741 -0.129363 0.989413
4.88572 5.2326 -9.60638 -0.0812508 -0.0547442 -0.995189
-8.77798 -3.02276 0.346209 -0.981894 0.187131 -0.0294203
-4.61613 1.73211 -9.14796 0.118882 -0.112527 -0.986511
6.83119 9.05798 -8.10712 0.174637 0.846122 -0.503567
8.59025 1.64041 8.08301 0.79686 -0.115249 0.593069
9.58141 -6.84029 5.73736 0.986761 -0.162124 -0.00420389
-9.52581 -4.18796 6.3829 -0.989126 0.119642 0.0855274
-8.59269 -3.95201 -8.59665 -0.699324 0.140683 -0.700824
