# x y Mean_Curvature nx ny
-9.1144 5.3167 0.401918 -0.99781 -0.0592837 -0.0293447
0.598327 -9.04084 6.8089 -0.0441443 -0.979112 0.19847
6.99537 -5.0085 9.52256 0.19545 0.0739804 0.977919
-3.7412 -8.91205 -0.376461 0.173369 -0.984402 0.029945
-9.06755 0.257067 4.81333 -0.993781 -0.019172 -0.10969
-8.95457 -3.37889 -7.98382 -0.855601 0.151026 -0.495115
-5.79575 -2.94825 -9.38293 -0.00287714 0.140134 -0.990128
-8.571 -6.72362 -8.73669 -0.667152 -0.154856 -0.728648
-4.62508 9.30199 -7.64131 0.103543 0.927603 -0.358931
7.50879 -9.22774 3.70749 0.336918 -0.930859 -0.141376
-6.06485 3.80306 -9.49654 -0.0383793 -0.131668 -0.990551
8.70906 0.62865 2.59467 0.981583 -0.0548945 -0.182979
5.40665 -8.58784 -8.8027 -0.0425154 -0.665487 -0.745198
-0.745899 8.19816 8.39378 0.0584727 0.664229 0.745238
-1.81526 8.55368 0.00160393 0.158028 0.987435 -0.000154947
-6.2144 9.4818 -7.25357 -0.0591495 0.965955 -0.251856
6.83618 6.84786 -9.49864 0.164784 0.167035 -0.972083
-8.8427 -7.43381 0.256452 -0.924766 -0.380015 -0.0198891
-7.96106 9.19114 4.92951 -0.4519 0.888093 -0.084129
8.52664 -8.12709 1.42625 0.779675 -0.617541 -0.103681
-3.46541 8.98235 -7.9617 0.149721 0.861702 -0.484823
-8.01027 -9.12311 -6.78003 -0.470466 -0.867196 -0.163197
4.96221 -9.49989 -4.05652 -0.0790543 -0.988973 0.125232
9.41212 3.16204 -5.63762 0.989948 -0.140452 0.0166396
5.73502 4.81479 -9.61596 -0.00444985 -0.0856374 -0.996316
-3.5246 -9.4546 6.15288 0.137551 -0.989131 0.051958
-5.1876 0.456137 -9.1075 0.073491 -0.0333303 -0.996739
9.12834 0.595182 5.45154 0.998148 -0.0429319 -0.0430926
-9.06092 -6.62269 0.0464649 -0.987776 -0.155843 -0.00346206
8.52933 -1.54746 -0.575162 0.988469 0.140766 0.05581
4.30067 -6.23131 9.55036 -0.114468 -0.0614328 0.991526
0.242196 -9.01547 4.40492 -0.0184561 -0.989905 -0.140523
-9.10925 0.174402 -5.31102 -0.998111 -0.012819 0.0600912
4.68295 6.34798 9.58262 -0.0945506 0.0782674 0.992439
-1.35604 -0.793797 -8.51812 0.126414 0.0768402 -0.988997
6.71042 -6.54524 -9.56082 0.139109 -0.110284 -0.984117
8.86643 7.7479 7.89075 0.793361 0.408745 0.451116
-9.10491 -1.26693 6.70955 -0.981472 0.087421 0.170502
8.98067 2.01879 -7.47015 0.9224 -0.128206 -0.364337
-8.91867 1.46128 -3.34156 -0.978447 -0.108235 0.175861
-0.900091 -7.79225 8.69876 0.0686165 -0.500193 0.863191
2.51839 -4.8096 -9.27036 -0.137368 0.0991515 -0.985545
-5.55497 9.23157 -1.81916 0.0285129 0.993158 0.113243
-9.46024 5.01422 -3.72481 -0.987929 -0.0763685 0.134773
-8.68207 -7.99861 1.85683 -0.82367 -0.553072 -0.125213
1.55456 -9.12087 4.55477 -0.104289 -0.986736 -0.124406
3.33804 8.8389 -0.386542 -0.183809 0.982446 0.0318293
9.05333 -0.912185 -4.46771 0.988718 0.0665805 0.134176
-9.63256 -5.09942 -6.06165 -0.99723 0.0650816 -0.0359962
-9.22736 -7.19927 -7.56848 -0.904868 -0.252034 -0.343064
-8.35314 -8.97232 -5.14512 -0.582573 -0.809966 0.0675604
8.86443 -5.53588 -8.52341 0.767087 0.0284534 -0.640912
5.88876 9.51852 -7.15396 0.0141373 0.973556 -0.22801
-9.17318 -6.89663 -2.18568 -0.970253 -0.204282 0.129918
0.883734 -8.4391 0.301402 -0.089573 -0.995492 -0.031197
-9.17205 -1.18116 -5.77064 -0.996738 0.0807103 0.000407584
5.80527 -9.65097 6.17387 0.00369485 -0.998687 0.0510961
-3.94525 9.05631 1.75997 0.155921 0.980653 -0.118361
-7.76617 -6.39387 9.29467 -0.389473 -0.0897091 0.916659
4.92568 4.77362 -9.57594 -0.0793708 -0.089427 -0.992826
-5.44366 9.48825 -3.74729 0.0370829 0.990409 0.133098
-9.10936 0.236255 6.21315 -0.99724 -0.017336 0.0721987
4.90796 4.06489 -9.4965 -0.0830939 -0.125131 -0.988654
7.43202 -9.40279 -4.90178 0.298781 -0.950641 0.0837307
2.2518 -3.51085 -9.05054 -0.141323 0.163777 -0.976322
-8.43564 0.57975 0.681847 -0.995764 -0.0596979 -0.0699369
-2.50164 8.93242 -2.59005 0.158972 0.973926 0.161854
-4.31657 9.51435 4.76354 0.115343 0.989043 -0.0921454
-5.35339 -9.15987 -1.17587 0.0537691 -0.995285 0.0807247
-8.6973 1.88738 -1.71552 -0.978987 -0.149488 0.138702
2.74542 0.619785 -8.73684 -0.184989 -0.0533423 -0.981292
9.54528 5.41718 -4.20225 0.992194 -0.0388604 0.118498
2.24077 9.13875 4.07421 -0.135566 0.979998 -0.145688
8.64122 -2.2303 -0.603294 0.983206 0.174093 0.0547477
-4.476 9.40597 7.27323 0.11001 0.958501 0.26301
6.66159 5.23851 9.59235 0.129404 -0.0542862 0.990105
6.45838 -9.10347 -0.732579 0.118949 -0.991494 0.0528217
-8.64353 -1.83632 -1.36577 -0.981475 0.150985 0.117943
9.1947 -3.25175 3.44884 0.976196 0.153437 -0.153294
0.252221 8.4044 -0.374327 -0.026737 0.998858 0.0395896
-6.72486 -9.47663 -4.11335 -0.146634 -0.981412 0.12381
-8.94503 8.07795 -3.6444 -0.84157 0.519681 0.147283
-1.60828 5.20863 -9.19139 0.104363 -0.0681941 -0.992199
-7.00329 -4.59022 -9.48293 -0.199815 0.102215 -0.974488
1.47132 2.61968 8.78865 -0.116176 -0.175673 0.97757
-2.97962 7.45936 9.13104 0.148186 0.338416 0.929256
3.6833 3.48667 9.26699 -0.146245 -0.148311 0.978068
-0.240719 8.41684 -0.618439 0.0253104 0.997604 0.0643914
5.79959 1.59127 9.20995 0.00367319 -0.102807 0.994695
-2.27798 -3.77592 9.09782 0.139376 0.156587 0.977781
-3.19211 8.56346 -8.46173 0.154842 0.717926 -0.67868
-5.81193 3.30181 -9.43296 -0.00488099 -0.139711 -0.99018
-6.34216 -9.62836 5.30002 -0.0761252 -0.995922 -0.0484125
8.51273 1.49998 -0.361664 0.989717 -0.138519 0.0356757
-3.55029 8.9682 1.57266 0.170567 0.978905 -0.112484
-8.89659 0.209016 3.67651 -0.98426 -0.0168019 -0.175928
-9.62329 4.97883 6.0838 -0.996468 -0.0743175 0.0391029
-4.08995 -2.95145 9.24488 0.138004 0.147666 0.979362
-0.0806327 -8.43225 -8.11997 0.00648871 -0.769019 -0.639193
8.50893 8.59927 -3.56913 0.681574 0.716062 0.150705
9.1634 1.60262 6.54232 0.985752 -0.104749 0.131609
5.24601 -9.19092 8.01066 -0.0573339 -0.883735 0.464463
-6.26221 -9.27902 -2.32075 -0.0743709 -0.988595 0.130956
0.293346 -6.98403 -8.99066 -0.0221375 -0.244816 -0.969317
-9.09149 -6.40887 -0.234663 -0.993787 -0.109941 0.0173071
7.14357 -0.834358 8.97037 0.285927 0.0615885 0.95627
-9.34206 -3.55533 7.03746 -0.965631 0.140979 0.218363
-7.32028 -6.03981 9.47228 -0.267293 -0.0342573 0.963006
-6.4808 -9.62172 -6.09965 -0.0979829 -0.994335 -0.0412018
-0.50812 7.39654 8.8657 0.0389325 0.366259 0.929698
9.15077 6.51402 -1.44244 0.987216 0.126865 0.0964901
-8.78818 0.396164 3.06795 -0.981834 -0.0334495 -0.186773
3.31148 7.87708 -9.00177 -0.150877 0.460743 -0.874615
9.21104 2.11017 6.62921 0.981295 -0.126044 0.145513
-2.3849 8.69391 -0.959457 0.176059 0.980871 0.083043
7.29023 -3.48063 9.2651 0.281666 0.144011 0.948644
-5.87021 -9.62217 6.53493 -0.0115269 -0.994214 0.106799
-9.62093 -5.39068 6.47429 -0.994474 0.0402076 0.0969787
-8.60908 2.13256 -0.211201 -0.984866 -0.172193 0.0197212
9.18683 1.75614 4.95339 0.989444 -0.112042 -0.0919085
-0.99144 9.14515 5.3389 0.0694468 0.996022 -0.0558286
-7.79356 9.1673 -4.08244 -0.413885 0.90073 0.131847
-6.71307 -8.67192 -8.64163 -0.152794 -0.704409 -0.693154
7.89341 7.68321 -8.89725 0.450641 0.38907 -0.803459
-8.55042 8.66987 4.11923 -0.67783 0.722839 -0.134353
-0.448998 8.70375 -7.7357 0.0352004 0.873688 -0.485212
5.53737 7.61022 9.3809 -0.027083 0.342573 0.939101
-9.28045 -3.37323 -3.89155 -0.978831 0.147956 0.141415
-9.49212 -5.74852 -7.26367 -0.967372 0.00297033 -0.253343
9.3306 -4.47609 3.18882 0.982561 0.116665 -0.144783
7.20204 6.11711 9.5001 0.239445 0.0448279 0.969874
6.64149 9.61027 5.75556 0.125178 0.992132 -0.0020824
-2.5966 1.44851 -8.78181 0.175561 -0.115042 -0.977724
9.20474 -1.834 -6.41176 0.987917 0.114784 -0.104137
3.33891 6.13918 9.42925 -0.139778 0.0504653 0.988896
8.77753 7.5867 -0.360831 0.901516 0.43183 0.0281505
9.30351 -5.01357 -7.73272 0.921488 0.076485 -0.380802
1.43049 9.13553 6.61492 -0.0962006 0.984266 0.148211
8.60535 1.71905 1.18709 0.983465 -0.146571 -0.106365
7.64429 4.64844 -9.30343 0.359467 -0.102106 -0.927555
-4.59457 7.40889 -9.37956 0.104046 0.295913 -0.949531
7.541 8.8682 1.34941 0.402114 0.910506 -0.0963526
0.259393 -4.54443 9.03492 -0.0196011 0.130909 0.991201
9.5736 4.71941 -6.48643 0.990608 -0.0926122 -0.100588
2.62563 -2.38087 -8.91886 -0.164064 0.155665 -0.97409
3.73907 -9.16691 -2.78179 -0.152112 -0.976965 0.149671
-0.372796 -8.98708 -4.19298 0.0286745 -0.987803 0.153048
-9.54363 6.86006 4.95685 -0.982753 0.16792 -0.0774561
-1.18516 8.63951 1.94062 0.104119 0.981954 -0.157879
-0.0514466 9.06408 -6.60249 0.00383009 0.98848 -0.151302
-7.57412 8.53735 8.45673 -0.363035 0.673432 0.643968
9.62623 -5.83486 4.94234 0.997017 -0.00725483 -0.0768437
-8.01682 -7.59544 8.86604 -0.489356 -0.365039 0.792008
-3.56171 -9.41506 4.75748 0.139183 -0.985569 -0.0963406
-7.18167 -8.94108 0.496556 -0.299699 -0.953293 -0.0375823
3.03455 9.06388 7.65005 -0.149966 0.906466 0.394754
-7.21183 9.05544 -1.9038 -0.290114 0.949207 0.12182
-7.38508 9.32068 -7.08334 -0.291923 0.930237 -0.222352
9.35837 -2.96724 -5.08603 0.987176 0.141533 0.0738368
1.31793 2.79393 8.80298 -0.104784 -0.179466 0.978168
9.14574 -5.61818 0.83008 0.998038 0.0215611 -0.0587747
-2.79145 -4.75276 9.30332 0.141795 0.101561 0.984672
-9.39373 -4.772 -7.42246 -0.950188 0.0928433 -0.297528
9.66002 -5.82738 -5.65965 0.999899 -0.00628529 0.012713
3.29506 8.84569 -0.710995 -0.182952 0.98143 0.0576588
3.33283 -7.32271 9.2326 -0.146051 -0.292931 0.944913
9.22161 -2.5151 6.88304 0.970649 0.138282 0.196772
0.33582 -3.68945 -8.90171 -0.0268674 0.17523 -0.984161
-6.5436 -9.57262 -6.62312 -0.109688 -0.986292 -0.123277
-8.98757 -1.48572 3.71906 -0.980253 0.106312 -0.166738
3.86007 2.07243 9.08275 -0.155985 -0.131929 0.978909
-7.2762 -6.30701 9.46947 -0.257677 -0.0734097 0.963438
-7.56043 9.0404 2.65754 -0.376649 0.914782 -0.145975
-9.47659 6.84826 4.27454 -0.978417 0.169842 -0.117706
0.935849 8.45207 0.498902 -0.0937774 0.994288 -0.0509583
-5.8656 3.37627 9.44299 -0.0118078 -0.139077 0.990211
-9.1299 -0.449999 5.80952 -0.999454 0.0326274 0.00530396
-3.10033 -9.33445 -4.62331 0.144051 -0.983627 0.108292
8.88703 7.56844 1.62047 0.907337 0.405402 -0.1113
9.54777 4.68249 4.70217 0.990878 -0.0958655 -0.0947098
-4.09477 -7.08294 9.40686 0.126399 -0.222182 0.966777
8.10152 -2.89083 -8.79187 0.554041 0.152865 -0.818334
-5.17601 -9.32554 -2.69102 0.0668976 -0.988071 0.13871
-0.010882 -5.93598 9.12063 0.000797513 -0.0248293 0.999691
1.085 4.9603 -9.12311 -0.0760767 -0.0944105 -0.992622
-5.24176 0.0358159 -9.10373 0.0679131 -0.00264069 -0.997688
6.5629 -9.57624 6.57511 0.112845 -0.986945 0.114917
-9.27367 3.80673 3.41011 -0.978452 -0.14369 -0.148273
-3.45246 8.85525 0.175878 0.182075 0.983179 -0.0144249
8.84296 -3.37441 0.290259 0.982739 0.183444 -0.0239057
-9.26025 5.46833 7.89459 -0.903946 -0.0349362 0.426216
-4.27933 -8.35169 -8.86509 0.126646 -0.599251 -0.79048
-9.29538 -2.71834 4.77766 -0.98495 0.140809 -0.10023
-1.29451 -0.391205 8.48662 0.123756 0.0391983 0.991538
8.63727 -0.589372 2.21226 0.983361 0.0536329 -0.173567
9.13554 1.90004 4.36448 0.983542 -0.121301 -0.133909
-5.97621 -9.58459 4.51164 -0.0252269 -0.99428 -0.103778
-0.21522 8.5624 -1.85537 0.0206532 0.98692 0.159882
-8.80881 2.89983 -1.1836 -0.978813 -0.181447 0.0948834
-4.46657 9.54234 6.53952 0.107229 0.988059 0.110645
4.29001 7.71741 -9.22998 -0.122314 0.38652 -0.914134
-4.78472 9.61012 6.00636 0.0876905 0.995728 0.0289227
-2.22481 -8.98507 3.15097 0.144568 -0.974985 -0.168835
8.52631 -8.68097 7.0847 0.658213 -0.715462 0.234246
-7.514 6.03485 -9.41334 -0.31658 0.0339292 -0.947959
5.16191 -4.47267 9.56298 -0.0616449 0.106449 0.992405
-6.85297 -9.47757 4.28961 -0.170683 -0.978349 -0.117049
8.28939 -8.93796 6.83994 0.566933 -0.804335 0.177853
-1.6528 7.62828 8.86353 0.113317 0.424825 0.898155
-9.10237 -4.31806 1.67444 -0.984059 0.138462 -0.111603
-1.09492 -7.18455 8.97711 0.0789815 -0.294883 0.952264
6.62226 3.70245 9.43654 0.130155 -0.135738 0.982158
-0.586386 9.13508 -5.79212 0.0422161 0.999105 -0.00272151
-5.11359 -2.44654 -9.28724 0.0738665 0.134523 -0.988154
-8.48756 -1.3505 0.175811 -0.99156 0.12844 -0.017672
-3.57362 5.65141 -9.47009 0.136401 -0.0146327 -0.990546
-2.91167 6.23074 -9.36303 0.140532 0.0664083 -0.987847
9.13135 -1.49873 -4.68894 0.988237 0.100749 0.115053
0.118542 -8.60784 -2.13369 -0.0110878 -0.984966 0.172389
1.05028 2.67174 -8.75413 -0.087479 -0.180864 -0.97961
4.09216 -9.42487 -4.20422 -0.12771 -0.984048 0.123853
5.80374 2.14921 9.27443 0.00412571 -0.125311 0.992109
4.34031 1.74661 9.11379 -0.136589 -0.114833 0.98395
-0.333619 -6.80892 9.03149 0.0249231 -0.199474 0.979586
-6.11569 8.08894 -9.15765 -0.0468403 0.488794 -0.871141
-9.34918 -2.97157 4.96364 -0.986271 0.14205 -0.0842042
1.77378 0.273477 8.55076 -0.15544 -0.0264037 0.987492
2.42644 7.48204 9.03565 -0.140807 0.358277 0.922936
5.82997 2.41142 -9.30842 0.00762953 -0.132533 -0.991149
-8.86878 -8.50466 -6.19341 -0.769965 -0.635295 -0.0596164
2.4251 8.70049 -0.951602 -0.177139 0.980755 0.0821069
8.04991 -9.01936 -7.12581 0.490078 -0.837849 -0.240484
-9.01374 -8.24008 -6.61778 -0.827431 -0.545678 -0.13264
-0.869317 -4.5499 9.06144 0.0634125 0.128689 0.989655
9.08439 4.04301 -1.86428 0.980989 -0.150764 0.12219
8.13516 -8.97511 -4.0328 0.528397 -0.838014 0.136122
-6.74883 5.06329 9.56926 -0.145965 -0.0690093 0.98688
8.84216 -7.99778 7.67018 0.78451 -0.484623 0.386891
-4.18676 -1.99626 9.12262 0.142723 0.126368 0.981662
-2.23064 -8.74559 -1.66616 0.163863 -0.977627 0.131891
8.62075 -0.726734 -2.06867 0.983663 0.0663752 0.167334
-1.50742 8.61197 -1.49072 0.130871 0.982888 0.129629
-7.24043 4.38979 -9.40475 -0.255967 -0.114321 -0.959902
-8.77398 2.53638 -1.47332 -0.977713 -0.174182 0.117211
-9.59976 -6.19282 -6.63677 -0.99069 -0.0545172 -0.124745
-8.1288 4.96659 -9.10265 -0.506713 -0.0819402 -0.858212
-8.72537 5.79587 -8.68235 -0.715046 0.00287145 -0.699072
-3.39372 0.0162948 -8.84305 0.183441 -0.00134577 -0.98303
2.10543 -7.7338 -8.87473 -0.133363 -0.448819 -0.883615
-6.55419 1.55169 9.15645 -0.134434 -0.102272 0.985631
9.52781 -4.75403 -6.85035 0.981696 0.0915145 -0.167026
1.43844 -0.680881 -8.52075 -0.132911 0.0661439 -0.988918
8.93282 -7.19532 0.384421 0.952106 -0.304365 -0.0292655
-1.24167 -8.54076 1.17992 0.115192 -0.987236 -0.109978
9.19273 -4.63245 -2.08444 0.985248 0.115202 0.126553
7.44056 8.87581 -0.969341 0.375468 0.92404 0.0719315
-1.61806 -4.58875 9.13192 0.107281 0.121604 0.986764
4.02128 9.25278 7.56663 -0.132447 0.928335 0.34735
-1.59234 8.53762 -0.606923 0.143454 0.987925 0.0585253
-2.57885 -8.85714 2.0332 0.167914 -0.975099 -0.144872
9.16918 -4.16462 2.36412 0.980411 0.140323 -0.138218
-8.26655 -3.44982 -8.78064 -0.594516 0.151915 -0.789602
0.247548 -9.124 5.8806 -0.0180802 -0.999707 0.0161118
7.29156 -9.37578 6.96064 0.266816 -0.943991 0.194138
-9.06426 2.62871 7.48908 -0.923372 -0.144913 0.355506
-9.12903 -2.94003 -3.34678 -0.975152 0.155057 0.158228
-8.0085 7.85692 8.73406 -0.492032 0.445031 0.748232
-0.383984 -8.52525 1.5819 0.0375667 -0.988896 -0.143781
2.79965 -7.76853 -8.96945 -0.149566 -0.439785 -0.885562
8.71858 -1.12595 -2.43796 0.97982 0.0950673 0.175828
-1.75315 8.70846 1.92515 0.140251 0.978566 -0.150791
9.25198 4.6225 -2.53094 0.983923 -0.112546 0.138672
-9.29281 -6.85383 2.96445 -0.972289 -0.184494 -0.143581
4.05967 -9.53478 -5.84561 -0.123657 -0.992286 -0.00885236
4.76932 -9.14355 1.52899 -0.108622 -0.988841 -0.101952
-8.9279 -0.279314 3.84689 -0.985252 0.0221043 -0.169676
2.14168 2.60407 -8.8778 -0.148617 -0.16691 -0.974707
9.2727 -5.55503 2.15976 0.991666 0.0279268 -0.125771
6.74723 5.30817 -9.5841 0.144943 -0.0482306 -0.988264
-6.65981 -8.20405 -9.03024 -0.140559 -0.533816 -0.833837
-6.24527 0.532805 -9.11529 -0.0777825 -0.0386793 -0.99622
3.39062 9.05062 -7.80753 -0.149488 0.887714 -0.43545
9.49885 4.36005 4.5575 0.987934 -0.114161 -0.104662
-6.43058 -4.29392 9.5341 -0.0929217 0.115254 0.98898
0.0965898 -5.05731 -9.08965 -0.00715694 0.0872265 -0.996163
-8.74508 -7.68145 0.689215 -0.885 -0.462551 -0.0531214
7.89627 3.82238 -9.07738 0.45287 -0.141446 -0.880285
3.70424 9.46698 5.14738 -0.134787 0.98872 -0.0653025
9.10949 2.9099 7.48751 0.925614 -0.148082 0.348296
9.26762 -2.29966 6.3642 0.987099 0.130705 0.0924748
5.00186 4.21006 9.52196 -0.0754182 -0.119166 0.990006
-0.340406 0.203917 8.40194 0.0360881 -0.0216665 0.999114
-8.41861 8.77152 -4.04047 -0.630929 0.763614 0.137193
-9.08297 -4.90597 -0.464709 -0.994276 0.101197 0.0342643
-8.96012 8.4025 5.99371 -0.801804 0.596854 0.0296011
-2.591 -3.23041 -9.0546 0.152598 0.163652 -0.974644
-3.3357 -9.15025 -3.0845 0.156681 -0.975346 0.155404
8.67727 2.92929 -8.26771 0.773355 -0.154002 -0.614984
-7.90997 0.861252 -8.62319 -0.545927 -0.0662676 -0.835208
0.470854 -8.70379 -2.60798 -0.041466 -0.982045 0.184033
6.00994 9.17764 -1.29656 0.0356864 0.995528 0.0874659
8.85429 -8.53466 5.51798 0.763459 -0.645138 -0.0304616
4.90368 -9.57153 -4.74471 -0.0810291 -0.992517 0.0913505
8.93914 -7.86146 -2.90304 0.870674 -0.468043 0.151203
9.4795 -4.53059 6.98892 0.974668 0.10554 0.197189
8.95754 -5.4883 -8.40308 0.801244 0.0336176 -0.597392
-9.2972 5.45064 2.37541 -0.990463 -0.0396251 -0.131956
4.84163 -9.26274 2.44028 -0.0971715 -0.985993 -0.135554
8.99099 8.36188 -5.95753 0.812714 0.582148 -0.0244727
-0.000546748 7.57902 -8.77556 4.29212e-05 0.430311 -0.902681
-2.53236 3.91885 -9.15709 0.144165 -0.148971 -0.978276
9.18477 -5.98105 8.05001 0.879382 -0.0273789 0.47533
-6.40584 1.06462 9.13082 -0.107056 -0.0743895 0.991466
-3.47269 0.247671 8.86025 0.181485 -0.0202435 0.983185
-0.56712 7.93821 8.58469 0.044634 0.561741 0.826108
8.97991 0.778832 -4.03359 0.9854 -0.0591258 0.159657
7.77628 8.68013 0.433419 0.500577 0.865021 -0.0340774
3.64527 -3.7108 -9.29485 -0.145029 0.144086 -0.97888
-1.70122 1.65434 8.66109 0.140642 -0.137473 0.98047
-0.171706 8.41735 8.13914 0.0138075 0.76253 0.646805
4.79328 9.57191 4.85552 -0.0883206 0.99252 -0.0842796
5.49863 1.44428 9.19025 -0.0360697 -0.0955452 0.994771
2.02065 1.50981 8.69047 -0.15789 -0.125248 0.979481
4.82827 9.17643 -7.97018 -0.0917373 0.885125 -0.456221
-2.5492 9.08394 -3.44498 0.14936 0.975512 0.161457
-3.74614 -5.76953 -9.49445 0.132851 0.000485931 -0.991136
8.04589 -0.0481128 8.4912 0.608873 0.00386448 0.793258
6.83298 -9.10238 1.48268 0.197451 -0.975212 -0.0998757
-8.57923 1.58046 1.13073 -0.984897 -0.13893 -0.103327
-1.31478 9.06058 6.94867 0.0911754 0.969395 0.227948
-3.87481 5.45245 9.5055 0.129769 -0.0359262 0.990893
-2.28939 -8.68054 -1.00117 0.172988 -0.981068 0.087064
9.59506 5.77723 -6.75307 0.989361 0.000437008 -0.14548
-9.31356 3.33118 -4.17459 -0.980583 -0.146022 0.130898
8.92579 -1.76055 -7.51974 0.914897 0.117746 -0.386135
-1.79488 -7.90034 8.73591 0.121861 -0.518039 0.846632
-3.11514 -9.18936 -7.3521 0.147447 -0.940821 -0.305149
9.09662 1.81984 -7.02567 0.963358 -0.117088 -0.241313
0.112094 -4.73555 -9.05669 -0.00841219 0.116339 -0.993174
8.76973 1.74326 -7.83096 0.861266 -0.119025 -0.494017
9.13191 -6.33632 0.982473 0.993188 -0.0938277 -0.0690923
9.37586 -6.28206 3.02722 0.987194 -0.0743089 -0.141162
-9.34257 3.31302 6.86293 -0.972787 -0.142955 0.182342
-6.36238 -9.09758 0.294093 -0.10057 -0.994695 -0.0216265
8.40377 0.391562 0.196298 0.998925 -0.0414137 -0.0208333
7.01157 9.13461 -2.09132 0.233723 0.963902 0.127542
8.45115 8.92497 5.93464 0.614208 0.788855 0.0213645
3.94197 -3.93395 -9.36912 -0.134973 0.135176 -0.981585
-5.47929 -5.89965 -9.65525 0.031352 -0.0150145 -0.999396
-1.21653 -9.08413 -4.52252 0.0856794 -0.987963 0.128795
5.73387 -0.598648 -9.13552 -0.0057049 0.0430689 -0.999056
-4.13897 -9.51517 5.02674 0.121944 -0.989795 -0.0737219
-2.23635 -3.15671 -8.98778 0.144861 0.168654 -0.974972
-3.54727 -8.97527 -1.63773 0.169955 -0.978612 0.115906
-5.27771 -9.55283 4.32142 0.0518514 -0.992174 -0.113586
-8.67582 5.02573 -8.68777 -0.702704 -0.0783848 -0.707151
8.59474 0.257343 -2.04365 0.985399 -0.0242139 0.168532
-9.22459 4.64392 -2.31534 -0.984613 -0.112691 0.133559
4.25644 -9.38582 -7.25003 -0.120727 -0.958065 -0.259876
8.39349 -5.26734 -8.95222 0.595692 0.0562839 -0.801238
7.3945 6.87296 -9.36253 0.291729 0.176629 -0.940051
-2.99486 7.51541 -9.11252 0.148715 0.354565 -0.923129
3.79936 -0.350647 -8.92148 -0.171337 0.0277884 -0.984821
-8.68606 -2.39142 -0.846731 -0.981388 0.177166 0.0740918
5.10794 -3.13731 9.38438 -0.0711112 0.141667 0.987357
9.3078 -2.74249 -4.86904 0.985672 0.140641 0.0931159
-7.23437 0.5343 8.92559 -0.315191 -0.0404842 0.948164
8.91505 4.88477 -8.39608 0.793585 -0.089258 -0.601877
6.37403 9.49211 -3.91468 0.0852518 0.98794 0.129255
2.54483 -7.89274 -8.85994 -0.146702 -0.490651 -0.858918
4.24394 -3.67065 -9.37222 -0.12503 0.140164 -0.982202
-1.67642 8.56934 0.877979 0.146787 0.985762 -0.0820124
-1.67731 -4.86688 9.16965 0.108801 0.0997857 0.989043
-1.77698 2.6564 8.8342 0.132509 -0.172494 0.976057
5.86513 3.82021 9.50379 0.0114475 -0.131029 0.991312
0.397928 -4.5711 -9.04188 -0.0298873 0.128723 -0.99123
-8.95079 -3.87802 -0.721874 -0.98442 0.166784 0.0556834
-1.47772 -2.35658 -8.74286 0.11948 0.169927 -0.978187
-0.0187091 -6.30339 -9.10001 0.00137958 -0.0892348 -0.99601
3.37291 -9.01369 2.15849 -0.167352 -0.975926 -0.139862
8.7881 2.0342 7.87275 0.855773 -0.131744 0.500296
-9.10056 0.436756 5.10685 -0.996124 -0.0320169 -0.0819312
0.376902 -8.48115 8.068 -0.0300796 -0.787088 0.616107
-5.54606 1.31592 -9.17995 0.0304008 -0.0885408 -0.995609
8.7092 6.77076 -8.58945 0.719343 0.164546 -0.674886
1.06456 6.73198 9.08414 -0.0752799 0.177206 0.98129
-8.16076 8.80453 3.17384 -0.565436 0.810332 -0.153768
-8.82091 -2.14551 -2.26057 -0.975373 0.153253 0.158622
-4.88682 -9.13353 1.29672 0.100061 -0.991001 -0.0889092
8.96237 -1.42589 3.60988 0.979868 0.10384 -0.170517
9.19807 -4.73568 2.03441 0.986356 0.108029 -0.124224
8.00505 5.62131 9.21015 0.460567 -0.0182409 0.887438
9.65122 -5.35945 -5.86707 0.999024 0.0427552 -0.0110588
8.64525 -8.01568 -1.68666 0.816517 -0.565281 0.117295
-0.433026 -9.02302 -6.86293 0.032309 -0.976589 -0.212675
8.06926 -8.4771 -0.286014 0.617391 -0.786323 0.0228969
-0.0752255 -8.70784 -2.68098 0.00665694 -0.982504 0.186122
9.5233 4.23665 -4.97794 0.989996 -0.118122 0.0771665
7.93531 -4.55682 9.16334 0.449389 0.109444 0.886607
-9.3259 6.75988 -7.56361 -0.929187 0.155233 -0.335431
0.424127 -0.0815881 -8.40348 -0.0448309 0.00866904 -0.998957
-1.86455 1.20048 -8.62906 0.154096 -0.105978 -0.982356
-5.10502 -8.65307 -8.71841 0.0715728 -0.693032 -0.717345
-6.47438 -2.45708 9.27743 -0.111835 0.134958 0.98452
0.880287 3.7481 8.93843 -0.0676929 -0.170721 0.982991
1.20106 4.19509 9.03656 -0.0863997 -0.148895 0.985071
-8.76746 8.0277 -2.48773 -0.827768 0.541622 0.146447
-5.66035 -8.16188 9.12354 0.0138114 -0.512312 0.858689
-3.50437 8.93231 1.31446 0.174214 0.979809 -0.0981015
-9.11216 5.1126 -0.70377 -0.995431 -0.0808537 0.0507993
2.34123 9.0446 3.39761 -0.14511 0.975603 -0.164748
-9.31224 4.57362 -2.98682 -0.983156 -0.112298 0.144202
-0.0109445 -2.78597 8.72755 0.000958557 0.18719 0.982323
9.17369 1.91001 -4.65623 0.986128 -0.119923 0.114761
-7.92581 -8.83807 2.52932 -0.502973 -0.851773 -0.146634
1.39886 -4.92088 -9.14636 -0.0944859 0.0965921 -0.990829
-9.53831 4.611 6.6924 -0.985479 -0.0997661 0.137397
-8.69597 -0.640761 2.52051 -0.981765 0.0563223 -0.181562
9.41181 -3.70344 -6.78887 0.977178 0.136532 -0.162732
-8.77169 4.29995 8.47212 -0.755328 -0.126032 0.643114
5.83282 9.4218 7.50158 0.00730224 0.949752 0.312918
-9.55502 -4.34973 -5.25825 -0.992229 0.112315 0.053545
9.5639 4.87618 4.68773 0.991999 -0.0831389 -0.0949999
1.96908 8.59845 0.63998 -0.16361 0.984733 -0.0594357
7.69571 -8.77406 -1.15277 0.459839 -0.883911 0.0851465
-1.93259 -8.77606 -2.18556 0.14569 -0.976476 0.158961
2.29101 8.77177 1.78262 -0.164296 0.976814 -0.137264
8.24399 8.61686 7.76455 0.571416 0.705691 0.418907
-5.01408 9.61367 -5.18694 0.0719984 0.995691 0.0584491
5.57517 -9.21866 -1.69819 -0.0261915 -0.993814 0.107927
-1.279 4.01372 -9.01539 0.0922226 -0.157256 -0.983242
5.58457 9.65887 5.80547 -0.0206882 0.999779 0.0037092
1.19794 8.54706 1.27791 -0.111077 0.986811 -0.117756
-3.3788 2.24882 9.02778 0.166163 -0.142681 0.975721
-9.33999 -6.95375 3.41737 -0.96916 -0.201082 -0.14246
-1.27847 -0.855581 8.51342 0.120301 0.0828007 0.989278
-8.96673 -4.09536 8.16417 -0.832968 0.133859 0.536885
2.62893 -9.0702 -7.4736 -0.144787 -0.925174 -0.35084
9.19197 6.09647 -1.48983 0.993962 0.0493996 0.0979782
9.33772 -3.3344 4.35818 0.981935 0.144625 -0.122017
3.01258 -5.992 -9.38887 -0.140518 -0.0296189 -0.989635
4.27765 -5.30627 -9.54923 -0.115492 0.0493278 -0.992083
9.09563 -6.75924 -1.26306 0.979403 -0.182026 0.0873836
-4.66786 1.07451 -9.09071 0.119012 -0.0763628 -0.989952
9.32791 -7.49772 -4.40013 0.939685 -0.321991 0.115383
6.55569 0.939067 9.10331 0.138529 -0.0667738 0.988105
-9.19852 7.71795 7.08045 -0.895203 0.384254 0.225745
7.43816 -8.89285 -1.15938 0.371734 -0.924506 0.0842779
-0.216052 5.23692 9.10508 0.015895 -0.0683831 0.997533
-7.08456 -9.1043 7.91588 -0.229119 -0.865531 0.445378
-0.298188 -2.35903 -8.65166 0.0271401 0.179343 -0.983412
-5.44688 9.33387 -2.64572 0.0393533 0.98974 0.13735
7.09306 0.922735 -8.99098 0.27076 -0.0673872 -0.960285
0.301752 9.10963 -6.22701 -0.0221096 0.996961 -0.074697
0.104224 -7.6144 8.75886 -0.00819445 -0.442782 0.896592
-2.55074 9.01129 3.01142 0.154525 0.974112 -0.165008
3.49982 -4.35893 9.36201 -0.142567 0.120705 0.982398
-5.02267 9.13689 1.18595 0.0882088 0.992718 -0.0820323
-6.11476 -9.63923 6.25538 -0.0430679 -0.997087 0.06295
7.69401 -7.77757 -8.95368 0.390227 -0.414179 -0.822301
4.04362 -6.41436 9.50512 -0.125186 -0.091332 0.987921
-2.35981 -4.02204 9.14767 0.139319 0.14673 0.979316
6.26872 -9.49029 7.20633 0.0672253 -0.968192 0.241007
0.0327592 -9.04575 4.64858 -0.00247031 -0.992367 -0.123297
8.81031 -5.74576 8.59134 0.746529 0.00351361 0.665344
-8.61976 7.93929 -1.0436 -0.829046 0.553572 0.0790016
-8.98483 -1.74537 -3.52708 -0.978064 0.121417 0.169259
-8.74838 -0.252036 2.88048 -0.982044 0.0217883 -0.187389
-9.13953 5.45587 -0.813016 -0.997434 -0.0423082 0.0577507
-1.45403 6.30212 9.17456 0.0965096 0.085528 0.991651
8.75319 8.04043 2.45448 0.823966 0.547568 -0.14577
-3.27891 9.37236 -6.6513 0.142045 0.980029 -0.139162
9.38842 4.65101 -3.45082 0.984455 -0.104121 0.141448
1.33821 8.69787 2.19101 -0.11234 0.979641 -0.16638
3.35044 9.34369 -6.88601 -0.142762 0.971947 -0.186917
-8.97225 -1.78075 -3.42925 -0.977453 0.124055 0.170871
-8.39692 -5.85212 -8.96774 -0.594417 -0.0101848 -0.804092
-9.11396 3.61026 2.56867 -0.976318 -0.157862 -0.147928
-9.06709 7.57993 2.87292 -0.914152 0.377145 -0.148619
6.56665 9.1786 -1.77014 0.135385 0.984373 0.112607
8.99543 1.00879 -7.0996 0.959602 -0.0730833 -0.271705
8.64298 -8.71531 6.46658 0.689572 -0.716447 0.105802
-1.30474 9.13199 4.86459 0.0894437 0.990761 -0.101941
3.58806 5.26412 9.45815 -0.13678 -0.0551466 0.989065
2.2889 -9.09954 -3.77692 -0.139679 -0.977762 0.156435
-4.32668 -8.21795 8.96746 0.1237 -0.549892 0.826025
-1.59505 -9.20435 5.47277 0.103198 -0.9939 -0.0388949
-9.33111 -6.63262 -2.97699 -0.980117 -0.138182 0.142398
-6.97894 9.14027 2.07532 -0.225787 0.965892 -0.126779
-9.53055 7.06179 5.36651 -0.97712 0.208215 -0.0433849
1.50795 -8.51051 0.252485 -0.139349 -0.989928 -0.0249923
-9.37516 3.48055 -4.49262 -0.983333 -0.141977 0.113569
-9.29406 7.82974 5.6048 -0.913704 0.40589 -0.0199394
9.05443 4.64688 -0.486014 0.991767 -0.122828 0.0362169
-3.91703 8.74379 8.42473 0.141591 0.757576 0.637206
8.76903 2.00041 -2.07771 0.976598 -0.150005 0.154127
-5.95758 7.52703 9.41131 -0.0234396 0.319845 0.94718
-7.19969 8.9265 -0.15843 -0.306453 0.951809 0.0121399
8.88104 -3.59804 -0.0954377 0.983917 0.178458 0.00773725
-7.40176 -0.159917 8.85398 -0.369765 0.0124036 0.929043
6.52793 9.41409 -3.45879 0.114474 0.983559 0.139666
0.265033 3.79296 8.91824 -0.0210728 -0.171781 0.98491
9.31022 7.38893 -3.99437 0.945082 0.298955 0.132086
-9.65869 5.95823 5.71412 -0.999729 0.0222919 -0.00672921
3.80122 -4.83294 9.45535 -0.133631 0.0897545 0.986958
-8.67904 -4.47766 8.6069 -0.715649 0.116798 0.688625
-2.09562 -9.02417 3.48631 0.136455 -0.976619 -0.166121
-7.48545 -8.81669 8.16702 -0.335566 -0.773137 0.538195
-0.815369 -5.57094 9.14371 0.0578256 0.0277908 0.99794
8.5753 -8.03541 -8.06753 0.693024 -0.504534 -0.51494
-9.64922 5.39211 -6.02657 -0.998723 -0.0397608 -0.0311622
0.053232 8.40716 -0.503415 -0.00564278 0.998581 0.0529625
-5.25057 9.13099 -0.857819 0.0659756 0.995958 0.0609496
5.29462 -3.66605 -9.47052 -0.0520242 0.1352 -0.989452
-9.60541 6.60753 -5.36643 -0.991911 0.119562 0.0426441
-9.44487 7.20734 -4.67443 -0.964501 0.245181 0.0981058
4.79214 -2.1867 -9.22366 -0.102687 0.129028 -0.98631
-1.3885 -9.10805 4.58647 0.0953019 -0.987787 -0.123268
2.56913 3.30116 9.06306 -0.151374 -0.163239 0.974905
-9.54744 -6.91985 5.15929 -0.981899 -0.179098 -0.0616227
-9.2013 1.8912 -4.94021 -0.988735 -0.117808 0.0923289
3.53832 3.91359 -9.30835 -0.145368 -0.139183 -0.979539
-9.0613 3.35266 -7.77223 -0.892719 -0.149617 -0.42505
1.34037 -8.54615 -1.11983 -0.122947 -0.986898 0.104485
-6.84152 -1.44864 9.09718 -0.199859 0.0981075 0.974901
7.38497 9.02122 2.07894 0.3369 0.932556 -0.129758
-9.23972 2.17165 -4.97895 -0.987955 -0.127693 0.0874014
-0.853795 -2.92112 8.78481 0.0708579 0.184402 0.980293
-1.42987 9.06168 4.21838 0.0996185 0.984263 -0.145952
3.43735 -5.29786 9.43896 -0.138972 0.0524188 0.988908
6.59768 -9.61365 -5.5862 0.117573 -0.992847 0.0207736
0.518019 -8.4909 1.28222 -0.0515811 -0.991144 -0.122363
-7.12274 -9.51447 -6.202 -0.221714 -0.973448 -0.0569341
5.83469 -9.65099 6.17039 0.00716998 -0.998693 0.0506093
8.93421 -3.89478 -0.176025 0.985705 0.167902 0.0139127
-9.14557 -5.78222 0.79777 -0.998396 -0.00126335 -0.0566029
6.67827 -9.5269 6.8238 0.134449 -0.977698 0.16134
-4.14869 -8.30246 -8.88046 0.132373 -0.58493 -0.800209
8.60657 -8.43439 3.27533 0.730956 -0.664739 -0.154352
-4.88786 9.44838 -7.27125 0.0840304 0.962306 -0.258661
4.57117 9.13549 -7.99229 -0.108914 0.877187 -0.467633
5.57324 6.12399 9.65117 -0.0219124 0.0441837 0.998783
7.99763 9.09832 4.31321 0.47457 0.87157 -0.123083
-0.615879 8.48137 -1.15436 0.0614862 0.991814 0.111912
3.40561 -9.15697 7.57139 -0.14732 -0.920643 0.361542
-3.39059 -1.74144 8.96051 0.171999 0.122578 0.977441
9.58887 6.44641 -6.57089 0.989111 0.0932885 -0.113828
9.02552 -5.2314 -8.28635 0.827769 0.0594757 -0.557907
2.77396 9.23138 4.18362 -0.14552 0.980031 -0.135513
9.26353 3.87068 -3.28173 0.978443 -0.142961 0.149032
-8.16478 -4.35692 9.00643 -0.530478 0.12188 0.838891
3.1508 -9.36027 4.80122 -0.142982 -0.985087 -0.0957082
5.35747 -8.87238 8.50315 -0.0475205 -0.771292 0.634705
-8.66306 -8.65662 -4.68799 -0.704489 -0.702085 0.103782
7.48164 5.39702 9.42008 0.308448 -0.0413291 0.950343
-1.3747 3.1034 -8.86593 0.10534 -0.179259 -0.978146
-9.30721 -3.43477 4.01492 -0.9798 0.146124 -0.136527
4.18521 9.53898 5.3204 -0.119359 0.99168 -0.0482206
1.01448 -9.14886 -5.37784 -0.0708449 -0.996168 0.0512939
-9.44496 3.43321 6.08734 -0.989424 -0.138691 0.0424836
-5.66921 9.21233 -8.00245 0.0126551 0.888021 -0.459628
-8.74103 -1.12535 7.75247 -0.872712 0.0836479 0.481016
-7.46952 -9.31972 6.96585 -0.312524 -0.929235 0.197107
4.01736 -8.95405 0.11555 -0.162495 -0.986668 -0.00905718
-8.39874 0.241002 -0.197647 -0.999449 -0.0256497 0.0210474
-9.51664 4.03734 6.25981 -0.989922 -0.124986 0.0665774
-9.4987 -3.77845 -5.7407 -0.991232 0.132075 0.00397747
-6.7462 -8.92167 -8.33949 -0.158602 -0.796817 -0.583033
-3.80625 9.27018 7.42907 0.138226 0.939671 0.312908
-1.16679 -5.89532 9.16981 0.0798888 -0.0179466 0.996642
-1.47166 5.59252 -9.19575 0.0968801 -0.0242981 -0.994999
-9.26863 2.29505 -5.1369 -0.988775 -0.130702 0.0723969
5.64302 -2.70312 9.34741 -0.0164794 0.137923 0.990306
-9.41536 -6.26847 3.29682 -0.987553 -0.070846 -0.140431
1.68773 -8.53741 0.272879 -0.150569 -0.988243 -0.0265598
-5.64785 -9.59844 -4.63291 0.0142933 -0.995185 0.0969698
9.01293 -3.76211 7.99726 0.86075 0.143865 0.488275
4.23159 4.38127 9.46394 -0.120949 -0.114762 0.986003
-9.514 -6.13761 -3.96102 -0.990684 -0.048472 0.127263
7.37637 -2.17352 9.03762 0.332274 0.132893 0.933774
-7.84689 -3.962 9.12403 -0.433429 0.136666 0.890765
-0.936141 -8.63664 -7.89875 0.071503 -0.838552 -0.540109
-9.38138 -5.74071 -2.93757 -0.990131 0.00418456 0.140081
-0.59712 -8.41511 0.225414 0.0622924 -0.997776 -0.0237336
-1.73637 9.22404 -5.91598 0.109598 0.993764 -0.0205128
-5.53689 -0.820458 -9.14299 0.0321731 0.0581829 -0.997787
-6.99503 -9.36643 -3.65927 -0.207363 -0.968381 0.138703
8.60272 1.31909 -1.59729 0.983454 -0.117133 0.138193
1.41308 3.95598 -9.01926 -0.100436 -0.158669 -0.98221
-9.12142 -5.93289 -0.13974 -0.999652 -0.0243282 0.010231
9.45462 -3.52896 6.16369 0.989051 0.137506 0.0535754
8.6645 -8.38068 3.32612 0.750965 -0.642179 -0.15381
-9.01382 -3.02056 7.75427 -0.890835 0.150829 0.42856
4.70781 9.53229 4.52466 -0.0949225 0.989927 -0.105041
-9.62639 -6.49938 5.80338 -0.994895 -0.100855 0.00349646
3.14025 7.14548 9.25363 -0.145775 0.250479 0.957084
0.835544 -0.717476 8.45669 -0.0839279 0.0724732 0.993833
8.81178 -2.6109 -1.66915 0.976605 0.173149 0.127521
8.07608 8.49147 0.687773 0.615239 0.786489 -0.0539897
-9.13137 -8.1158 -5.22217 -0.864329 -0.499351 0.0598744
-7.58916 7.23689 -9.20871 -0.349527 0.261553 -0.899678
-9.2612 -7.70127 -4.48106 -0.918765 -0.378479 0.112361
8.04236 -8.09593 -8.54875 0.50723 -0.524692 -0.683678
-8.33147 -8.67266 -3.16325 -0.629901 -0.761128 0.154624
4.25067 3.54004 -9.35426 -0.125719 -0.142674 -0.981753
-4.00968 9.37453 7.16996 0.130045 0.961123 0.24358
-3.57664 -5.96306 -9.4691 0.136406 -0.024631 -0.990347
-1.7498 -1.26576 -8.61868 0.147494 0.111838 -0.98272
5.00373 9.57896 6.64774 -0.0733679 0.98911 0.127588
2.6691 -9.34183 -5.59907 -0.137485 -0.990263 0.0218296
5.25974 -9.50191 3.91495 -0.0545507 -0.990145 -0.128982
-7.74366 -1.72067 8.8147 -0.463222 0.117391 0.878433
4.97643 -9.55215 -6.81801 -0.0758712 -0.98427 -0.159553
9.4287 -3.29947 6.01977 0.989616 0.139893 0.033023
7.78985 -9.16211 -7.09791 0.406218 -0.884171 -0.230714
7.49948 -5.29727 9.40938 0.313619 0.0509817 0.948179
-8.9552 -3.32823 -1.78623 -0.97701 0.172451 0.125349
8.70586 1.83452 -7.95738 0.83367 -0.123992 -0.538164
9.05786 0.950401 6.82499 0.977358 -0.0682735 0.200273
9.09988 -0.420744 6.37253 0.994267 0.0308085 0.102395
-2.06373 -8.93976 -3.02627 0.140492 -0.97515 0.171303
3.92689 9.01895 8.03416 -0.139212 0.856908 0.496316
-6.11191 9.13372 -0.74242 -0.0535769 0.997154 0.0530442
8.52684 1.6309 0.184002 0.988919 -0.147353 -0.018048
-9.28122 7.85777 5.5942 -0.909835 0.414429 -0.0211666
-3.7708 8.92807 0.641955 0.171278 0.983942 -0.0502214
8.95355 -0.274186 3.99947 0.986374 0.0214507 -0.163113
-6.46962 -9.25918 -2.31825 -0.111938 -0.984965 0.131586
2.44424 0.283776 -8.66691 -0.181537 -0.0256169 -0.98305
-9.26894 -2.43883 6.52485 -0.983381 0.134764 0.121655
8.13406 -4.0042 -8.97115 0.528799 0.137174 -0.837589
-2.31663 8.69702 1.1261 0.172618 0.980279 -0.0962056
3.52786 -9.28875 3.78848 -0.14665 -0.978782 -0.143107
-7.07602 4.73271 9.4818 -0.214643 -0.0937951 0.972178
5.20866 -2.29297 -9.27336 -0.0654537 0.130413 -0.989297
-6.13541 -8.73353 -8.6612 -0.0507313 -0.719501 -0.692636
-8.88431 -1.58963 7.56612 -0.907561 0.10971 0.405335
8.87302 8.50579 6.1193 0.770914 0.635115 0.048163
-7.38253 6.60814 -9.40828 -0.285977 0.124967 -0.950053
8.47185 8.90203 -5.43422 0.622662 0.781493 0.0395108
-6.44789 9.42928 3.5046 -0.0999135 0.985281 -0.138705
-3.78413 -9.16852 2.74659 0.151176 -0.977239 -0.148829
-9.45532 -7.31718 6.34417 -0.960192 -0.267804 0.0794559
3.09493 9.19571 3.61242 -0.152411 0.976574 -0.151901
5.43068 -1.94254 9.24148 -0.0430025 0.118374 0.992037
-0.470558 -8.62208 -2.1592 0.0433674 -0.984088 0.172307
-7.22593 9.09248 -2.21105 -0.288373 0.948245 0.132935
-7.00653 -6.23253 9.53751 -0.196568 -0.0611514 0.978581
-5.58999 6.1645 -9.64962 0.0201785 0.049807 -0.998555
-6.14995 -9.5317 7.05724 -0.0491947 -0.97707 0.207157
-5.38922 8.09956 9.15066 0.0435671 0.492574 0.869179
2.62675 0.134067 8.69814 -0.185326 -0.0119214 0.982605
-9.09266 4.94727 -0.605584 -0.994289 -0.0971159 0.044243
-7.18513 9.1321 2.4042 -0.273666 0.951884 -0.137926
-9.25163 -2.23898 -6.44319 -0.985766 0.129283 -0.107477
-9.55517 -4.46729 6.41319 -0.990251 0.106834 0.0893815
-0.803648 1.47452 8.53453 0.0769718 -0.134623 0.987903
8.26015 -0.06695 -8.30602 0.697459 0.00539904 -0.716605
-2.85831 5.03525 9.33884 0.141061 -0.0788012 0.98686
-9.44139 -5.46807 -3.40075 -0.989658 0.0352649 0.139047
9.51255 -5.15921 4.04444 0.990144 0.0631007 -0.125036
1.58804 -2.31345 -8.7493 -0.126523 0.167388 -0.977739
8.70405 0.707547 -7.75902 0.869512 -0.0546981 -0.490874
9.45788 7.20586 6.602 0.962263 0.242879 0.122723
-0.891449 3.78321 8.94528 0.0682904 -0.169414 0.983176
7.74454 -8.94266 2.56793 0.438705 -0.886695 -0.145982
8.85684 -0.480341 3.41622 0.982523 0.039102 -0.18199
-9.166 -4.82073 -7.98873 -0.881879 0.0923729 -0.462338
-8.08925 6.68511 -9.09583 -0.495104 0.144754 -0.85669
8.16273 -8.79173 3.11377 0.568377 -0.808243 -0.153919
2.86625 -3.75133 9.18177 -0.150302 0.150844 0.977065
-9.52218 -4.73032 -4.41235 -0.989388 0.093925 0.110856
-2.01608 0.256071 -8.59001 0.167359 -0.0241613 -0.9856
8.42963 -0.392622 -0.729254 0.996352 0.0408142 0.0749452
2.13815 8.61147 0.272762 -0.172255 0.984725 -0.0254105
3.55979 9.45299 -5.24236 -0.137329 0.988868 0.0572717
6.14499 -6.8622 9.56906 0.0480835 -0.166832 0.984812
9.63352 -5.10165 -5.49613 0.997444 0.0648952 0.0299104
-5.38487 -7.05065 9.53371 0.0416064 -0.205752 0.977719
-5.59176 3.60769 -9.47368 0.0214043 -0.135841 -0.990499
9.1912 -3.40331 -7.47937 0.930812 0.146577 -0.334819
7.39547 -9.09221 -2.58664 0.328729 -0.933472 0.143414
8.57702 8.69008 4.37317 0.680255 0.722667 -0.122494
-1.84696 8.97316 3.3857 0.127527 0.977006 -0.170867
4.94498 9.30486 -2.67279 -0.0874254 0.986375 0.139357
-4.19443 8.43172 -8.78771 0.130871 0.63113 -0.764557
9.21869 4.39156 2.49506 0.982016 -0.12723 -0.139492
-2.47371 1.89834 -8.81932 0.167581 -0.14049 -0.975797
-0.504418 9.04772 6.75387 0.0373159 0.981935 0.185504
-6.22752 -5.60417 -9.64647 -0.0587867 0.018706 -0.998095
-9.21825 -3.34034 3.51095 -0.976732 0.151978 -0.15132
-1.36242 8.57464 1.34451 0.122578 0.985036 -0.121153
-9.16619 6.09491 -1.20512 -0.995361 0.0498108 0.0823131
6.3399 -9.1535 8.06678 0.0820975 -0.871633 0.483235
4.3309 -9.53095 4.935 -0.114059 -0.990243 -0.0800597
-3.61374 -0.398881 -8.89003 0.177384 0.0320375 -0.98362
-8.74073 -2.49834 8.07056 -0.81727 0.146947 0.557204
5.62818 9.53279 -4.05125 -0.0168668 0.99214 0.123989
-8.28657 5.87795 9.04492 -0.555281 0.0135657 0.831552
0.248455 -6.7907 9.03327 -0.0185916 -0.195186 0.98059
6.25549 2.11087 9.25237 0.0741951 -0.124701 0.989416
9.0106 -7.12597 8.06471 0.834865 -0.240689 0.495045
-1.95211 5.11679 -9.22365 0.11954 -0.0759038 -0.989924
5.43424 9.55854 6.93475 -0.0366072 0.982745 0.181309
-9.16075 1.08593 5.53696 -0.996667 -0.0750973 -0.0318606
-5.00909 9.48628 3.92235 0.0759478 0.988666 -0.129504
9.10393 -1.9815 7.07621 0.959746 0.123978 0.252024
9.04184 -6.88915 0.916715 0.974027 -0.216517 -0.0662675
8.06838 -8.47693 0.254827 0.617249 -0.786503 -0.0204172
-9.4236 3.37599 5.18351 -0.988125 -0.139987 -0.0633425
0.921499 -8.58915 1.78256 -0.0848585 -0.984671 -0.152386
8.53872 -1.60166 0.602633 0.987863 0.144058 -0.0580819
-5.37884 -8.71965 -8.67497 0.0454411 -0.714629 -0.698026
9.13471 1.41321 -4.79433 0.989611 -0.0957419 0.107256
-4.12243 -2.36127 9.16269 0.142325 0.138495 0.980083
-5.46915 2.38909 -9.29974 0.0374999 -0.132255 -0.990506
-3.0728 -0.52427 8.79416 0.186204 0.0439596 0.981527
9.23074 -3.0217 -7.16355 0.955328 0.14591 -0.257019
8.22314 -8.57083 2.19009 0.627826 -0.765811 -0.13917
-8.59653 8.15019 -7.91491 -0.700016 0.541385 -0.465704
8.78043 2.28045 -7.95126 0.842032 -0.140586 -0.520786
5.89744 -7.03948 9.54364 0.0151552 -0.202857 0.979091
3.34348 9.13226 2.96375 -0.15799 0.97517 -0.155186
1.09277 1.08701 8.51417 -0.104197 -0.103689 0.989137
-0.509529 3.98985 -8.95924 0.0395092 -0.162897 -0.985852
-2.29749 2.89598 -8.95193 0.149889 -0.168002 -0.974325
3.63582 -9.46364 -5.24485 -0.135936 -0.989089 0.0567873
-2.95216 4.45267 -9.29285 0.144863 -0.11988 -0.982163
-1.20005 -9.17258 -5.65334 0.0818457 -0.996507 0.0165991
-4.40543 3.69855 -9.39607 0.116847 -0.138453 -0.983452
-1.45082 -5.93676 -9.19403 0.0957824 -0.0239943 -0.995113
8.46533 0.970794 -0.665713 0.993099 -0.0962449 0.0670164
4.24368 9.43714 7.03205 -0.120011 0.970493 0.209142
-1.25343 1.89102 8.63904 0.109557 -0.154854 0.981844
-3.82093 8.97217 -8.08325 0.142836 0.844447 -0.516243
8.91489 3.16782 1.69365 0.976866 -0.17527 -0.122531
-3.52752 8.35793 8.72406 0.151091 0.625868 0.765154
-7.34923 -7.08548 -9.33122 -0.282765 -0.222423 -0.933044
5.29723 -6.26689 -9.63355 -0.0485907 -0.0647667 -0.996717
-9.4254 7.41999 -5.14332 -0.95368 0.293828 0.0645024
2.06997 8.76651 1.99193 -0.153935 0.976668 -0.149748
7.33026 9.1479 -7.66828 0.286369 0.882098 -0.374027
9.63149 -5.51103 6.40438 0.995924 0.0283991 0.085606
-0.302969 8.6746 -2.48298 0.0272237 0.982857 0.182348
6.42758 2.32268 9.26437 0.10398 -0.131542 0.985842
-9.18512 -6.76911 7.89372 -0.887131 -0.159977 0.432905
5.72121 6.07687 9.65518 -0.00594263 0.0377531 0.999269
9.03335 -7.91256 -3.60659 0.873535 -0.464077 0.146864
-9.15402 -5.18886 -8.07169 -0.872271 0.0627964 -0.484974
-1.97503 -8.08009 8.64392 0.130635 -0.580239 0.803901
-5.88185 9.65922 5.63923 -0.0128209 0.999807 -0.0149167
1.61393 8.88024 7.58173 -0.111055 0.905298 0.410003
-4.21626 -2.21274 9.15555 0.139221 0.133562 0.981213
-7.01945 -9.30187 3.25641 -0.218251 -0.965153 -0.14438
9.38906 -7.37913 -6.7473 0.946092 -0.286434 -0.151215
-3.82555 8.6465 -8.5147 0.144619 0.724216 -0.674237
-7.79633 9.28603 -6.34767 -0.398064 0.91367 -0.0821731
-7.7573 -8.73837 1.12543 -0.482786 -0.871731 -0.0836754
-9.32762 2.83306 4.9445 -0.986186 -0.141236 -0.0865442
-9.00319 -8.20258 -6.80937 -0.82684 -0.535877 -0.170796
-9.55803 -4.26515 -5.59522 -0.993083 0.115647 0.0203075
-6.72588 9.06611 0.780176 -0.177577 0.982476 -0.0566249
4.08267 -8.96456 -0.10018 -0.159313 -0.987197 0.00781677
6.88096 3.0985 -9.30744 0.18884 -0.144004 -0.971392
9.13153 -7.58914 -7.47212 0.87787 -0.353656 -0.32291
8.76842 2.19981 1.86507 0.976737 -0.160321 -0.142416
-4.46273 9.24956 -2.64757 0.121782 0.982384 0.141745
-8.86528 7.84946 7.79432 -0.793111 0.43879 0.422418
7.34294 9.23495 7.42844 0.285986 0.907702 0.307066
-8.81633 -1.83106 7.76902 -0.874565 0.122665 0.469137
-2.39641 -3.4674 -9.06454 0.145759 0.162896 -0.975817
4.71714 9.5503 -4.69392 -0.0937303 0.991044 0.0951084
9.21959 5.07437 -1.94618 0.989615 -0.0799508 0.119458
-0.659969 -7.53935 8.81264 0.0505468 -0.412632 0.909494
-1.96192 -9.01967 7.34443 0.125086 -0.936612 0.327278
7.87378 4.48744 9.18507 0.431033 -0.113097 0.89522
9.18358 -6.42594 -1.65916 0.988378 -0.107924 0.107062
0.508679 -8.6175 -2.12292 -0.0469478 -0.984192 0.170767
9.0264 6.97562 0.984771 0.968592 0.238291 -0.0710376
3.92741 -9.08375 -1.9998 -0.15423 -0.979626 0.128634
-6.21052 6.88381 9.56183 -0.0575887 0.171286 0.983537
-0.931331 -8.48923 0.998305 0.0911341 -0.991074 -0.0972988
-9.12977 0.918794 -6.31296 -0.993858 -0.0649655 -0.0895816
3.33698 1.07646 -8.87993 -0.179617 -0.0839832 -0.980145
1.64296 9.19427 -5.19713 -0.106053 0.991947 0.0692446
-5.55523 -2.51017 -9.31889 0.0272863 0.134789 -0.990498
-8.48737 0.464068 -1.27526 -0.99144 -0.0463877 0.122043
9.08358 4.97896 0.197141 0.995391 -0.0947824 -0.0146256
3.10771 -1.59711 -8.89217 -0.176773 0.118118 -0.977138
1.48149 7.69162 -8.81151 -0.104728 0.450992 -0.886362
-4.73684 -3.65692 -9.42639 0.0972022 0.137472 -0.985725
4.55459 9.44659 7.14947 -0.104974 0.966856 0.232746
-4.14099 3.09885 -9.27419 0.134433 -0.147497 -0.979884
-0.568744 -9.12782 -5.46557 0.0410795 -0.998298 0.0413892
9.23715 -4.276 -2.72789 0.980777 0.131416 0.144242
6.33584 9.54399 -6.93544 0.0767283 0.980275 -0.182137
-2.07726 8.60139 -0.291016 0.169828 0.985097 0.0272606
-9.58681 6.11118 -4.57856 -0.994014 0.0434135 0.100258
6.50394 -0.0480748 9.07805 0.129807 0.00356613 0.991533
6.22792 2.36305 -9.28712 0.068345 -0.131947 -0.988898
-6.65926 -3.21101 9.36136 -0.141328 0.142469 0.979658
6.23989 -9.61125 -4.92411 0.0613028 -0.995031 0.0784541
3.8774 -9.49527 6.27061 -0.130064 -0.989114 0.0688205
2.70481 6.35807 9.32373 -0.138889 0.0889909 0.986301
7.1579 -9.46169 4.72023 0.233257 -0.967767 -0.0949677
-9.52106 -6.63435 6.8919 -0.976429 -0.126792 0.174672
-8.75743 7.76985 -1.37316 -0.870715 0.481717 0.0990211
-6.73105 9.56533 6.47477 -0.142674 0.984861 0.0984496
-3.40586 -8.9887 1.93779 0.169468 -0.97676 -0.131224
-2.99899 8.29523 -8.66912 0.154442 0.622677 -0.767086
7.52609 -9.08376 2.84191 0.361476 -0.920575 -0.147905
4.7222 -1.23634 9.11039 -0.113976 0.0860126 0.989753
-6.60325 8.07286 -9.11822 -0.128863 0.488415 -0.863044
-5.77733 9.56571 4.31578 -0.000455695 0.993556 -0.113338
8.60561 -2.07402 -0.430823 0.984765 0.169198 0.0401292
-5.61593 0.0397989 9.1209 0.022158 -0.00291643 0.99975
8.11715 0.344586 8.44043 0.636556 -0.0275705 0.770737
-9.22483 5.54722 1.76136 -0.993406 -0.0295625 -0.110774
8.07304 -8.47265 0.230244 0.619307 -0.784932 -0.0184614
3.15718 -8.62211 8.38927 -0.154817 -0.742027 0.652249
3.91042 9.4533 6.70452 -0.130649 0.980881 0.144236
8.09457 3.22751 -8.85921 0.539355 -0.153107 -0.828043
-3.84026 -9.39902 -6.96094 0.134052 -0.971055 -0.197694
-4.72583 3.0479 9.33774 0.10175 -0.14344 0.984415
7.19344 1.54103 9.01766 0.291071 -0.104844 0.950939
2.77346 -9.26721 -4.45762 -0.14344 -0.982228 0.121046
-9.07087 -0.232457 4.84795 -0.994139 0.0173215 -0.106711
7.97512 8.54429 -0.132151 0.580063 0.814503 0.0105793
-9.00381 6.06014 -8.33818 -0.817786 0.0391115 -0.574192
-4.67767 -6.58886 9.5583 0.0954643 -0.118348 0.988373
-3.72629 -8.99564 -1.54785 0.165905 -0.980029 0.109628
-4.18058 -1.45807 9.05892 0.14773 0.101408 0.983815
-5.30347 -9.61831 -6.46126 0.0482361 -0.99431 -0.094974
-9.64067 5.35006 5.32717 -0.99799 -0.0437629 -0.0458361
9.03203 0.432014 4.48893 0.990379 -0.0325468 -0.1345
-8.99551 6.97329 0.37627 -0.969951 0.241651 -0.0282993
8.61355 1.81508 -1.12642 0.983169 -0.152309 0.100896
-2.01257 -1.50048 -8.68798 0.157657 0.124763 -0.979581
8.83517 -1.50663 2.85353 0.977244 0.115738 -0.177763
1.9534 -8.57643 0.0544947 -0.164859 -0.986303 -0.00519321
9.11072 -7.44291 2.814 0.92982 -0.337407 -0.146942
6.74008 -8.64294 -8.66466 0.158277 -0.694148 -0.702216
-3.85081 -5.69392 9.50796 0.130202 0.0094951 0.991442
-3.677 -9.08955 2.33143 0.158888 -0.977053 -0.141853
2.39464 -9.29858 -5.42216 -0.132473 -0.990264 0.0427509
7.82598 -1.51488 8.74254 0.498657 0.107335 0.860128
-3.12505 5.37322 9.39842 0.140914 -0.0458708 0.988959
8.77509 -0.449147 -2.98897 0.981653 0.0381211 0.186825
9.09827 -0.196714 -5.14816 0.996855 0.0145131 0.0779129
-6.95598 -3.89817 -9.40797 -0.195982 0.132341 -0.971636
0.756592 9.05332 4.53967 -0.0557353 0.98996 -0.129893
5.81307 -2.51419 9.32239 0.00528711 0.134739 0.990867
7.46426 -9.31361 -4.19945 0.315888 -0.940573 0.124648
1.57581 9.20496 5.54809 -0.102169 0.994322 -0.0297575
-8.91136 -8.03674 3.31319 -0.843122 -0.515767 -0.152085
-5.29653 9.64852 5.84996 0.0484432 0.998785 0.00900567
5.50025 3.49537 9.45571 -0.0316341 -0.137796 0.989955
9.27499 -3.43076 7.22975 0.952864 0.144237 0.266921
-1.87711 9.05614 -7.19833 0.120626 0.950364 -0.286805
-9.13588 -3.72578 -2.59143 -0.976959 0.154596 0.14714
-3.35318 9.34646 4.40687 0.144106 0.982347 -0.119285
-0.399648 -9.01294 4.36018 0.030379 -0.989243 -0.143093
2.46566 9.31481 5.90072 -0.133781 0.990857 0.0174461
6.39888 4.38817 9.54776 0.0873431 -0.110767 0.990001
-0.634486 0.247317 -8.41806 0.0659682 -0.0259804 -0.997483
0.485595 -9.08745 -6.49847 -0.0355932 -0.99113 -0.128038
-9.31066 -7.7177 5.02552 -0.923424 -0.37629 -0.0754575
-1.03028 7.46972 -8.86868 0.0761168 0.384131 -0.920136
7.77423 -8.6778 -0.33276 0.500618 -0.86527 0.0262638
0.0603137 8.84996 -7.40954 -0.00468559 0.928024 -0.372491
2.19056 -5.96265 -9.27723 -0.126693 -0.0268274 -0.991579
6.14743 8.72734 8.66671 0.0525814 0.7173 0.694778
8.43843 -8.51036 2.84395 0.684526 -0.712585 -0.153777
2.58409 8.90374 -7.8255 -0.146933 0.872597 -0.465817
8.74128 -8.31961 -3.45821 0.7745 -0.614032 0.152035
9.46084 3.67773 5.11014 0.988401 -0.135481 -0.0686159
-4.1006 9.35912 3.7098 0.130905 0.981416 -0.140313
3.78985 -4.44441 9.41338 -0.13597 0.11415 0.984115
-9.65936 -5.78128 5.60656 -0.999831 -0.000896584 -0.0183848
-5.81214 -9.66015 5.66379 -0.00448945 -0.999915 -0.0122636
-5.9241 -9.16926 1.16715 -0.0223527 -0.99655 -0.0799251
