# x y Mean_Curvature nx ny
6.47712 -8.02334 9.1625 0.105465 -0.470456 0.876099
-1.3228 -0.511866 8.49566 0.125439 0.0508259 0.990799
7.81194 -8.51584 -8.32794 0.434282 -0.669892 -0.602199
9.56505 -6.52876 -4.67632 0.989575 -0.107912 0.0953792
-6.52934 -6.71765 9.56155 -0.107591 -0.140388 0.984233
-0.493956 -8.66651 -2.40129 0.0443657 -0.982724 0.179683
-2.52865 -0.634731 8.69713 0.181758 0.0557708 0.98176
1.45401 -8.40545 -8.27305 -0.105587 -0.729629 -0.675643
-9.4966 7.17009 -5.18895 -0.970633 0.233018 0.0597796
9.50378 7.04148 -4.89259 0.975049 0.205985 0.0827597
5.19384 9.10691 -0.423744 -0.072866 0.99686 0.0310024
3.54697 7.49339 9.20863 -0.144563 0.335801 0.930773
-4.15267 9.50492 4.87793 0.121927 0.9889 -0.0849175
9.08338 1.23191 6.80862 0.977245 -0.0857506 0.194006
-5.13745 5.90916 9.63896 0.0619593 0.0162749 0.997946
4.11165 9.45789 6.83972 -0.124417 0.977657 0.169433
-9.24515 7.93225 -5.98313 -0.898757 0.437585 -0.0274928
0.925592 -6.12608 9.14381 -0.0651481 -0.0557033 0.99632
6.40516 7.53827 9.38107 0.0904403 0.325043 0.941365
1.21077 1.06732 -8.52514 -0.113691 -0.10125 -0.988343
2.12426 -8.38617 8.4119 -0.137202 -0.69526 0.705542
9.5345 -6.96649 6.37992 0.978446 -0.188729 0.0838118
9.24875 -3.65968 -3.39038 0.977598 0.14775 0.14991
-8.56469 5.57817 -8.8307 -0.655906 -0.0236683 -0.754471
-8.46102 0.973306 0.594635 -0.993487 -0.0967505 -0.0601927
8.94412 3.89678 -0.520642 0.985132 -0.166925 0.0406301
-2.16363 7.03085 9.13956 0.130073 0.237504 0.962639
9.35357 -4.99992 -2.98092 0.986544 0.0811548 0.141931
7.92142 9.24077 -5.32632 0.435396 0.898883 0.0494006
-5.3974 -9.6131 6.55211 0.0396554 -0.993145 0.109959
8.54479 6.25023 8.83019 0.650577 0.068743 0.756323
-7.51396 7.76891 9.0363 -0.337605 0.407871 0.84833
1.64295 8.62563 -1.45224 -0.139551 0.982201 0.125729
-8.34504 8.36997 -1.66853 -0.697155 0.707262 0.117288
8.39918 -0.282695 -0.159782 0.999403 0.0300582 0.017017
7.25028 9.33551 -3.88162 0.265 0.954788 0.134742
2.78759 -7.1098 -9.2094 -0.144014 -0.247376 -0.958157
9.29233 -6.81016 2.90635 0.97401 -0.175651 -0.143008
-2.31754 0.773595 -8.66746 0.175692 -0.0686556 -0.982048
8.90407 0.827358 3.57392 0.98218 -0.0648463 -0.176401
8.16557 -1.33582 -8.48359 0.635846 0.098422 -0.765514
9.0895 3.79393 2.19863 0.978096 -0.156883 -0.136807
-3.9376 -6.13165 9.51128 0.127982 -0.0476626 0.990631
-1.8212 -6.09388 -9.22746 0.113469 -0.0480922 -0.992377
1.65355 9.20949 -6.08188 -0.106001 0.993274 -0.0465817
8.34547 -6.03732 8.99972 0.576658 -0.0357951 0.816201
9.42582 3.58528 -6.57878 0.98279 -0.137906 -0.122909
-8.78553 -0.632439 2.99911 -0.981138 0.0530426 -0.185891
9.4522 3.92071 -4.6361 0.986075 -0.131163 0.102237
-6.25962 -2.83052 9.34949 -0.0715177 0.139991 0.987567
-2.22369 9.2323 -4.82901 0.129964 0.986508 0.099557
-8.77328 3.69268 8.33649 -0.777037 -0.14763 0.611898
4.47904 8.66596 -8.62062 -0.116726 0.710716 -0.693727
3.34626 -0.141626 8.835 -0.184239 0.011735 0.982811
-3.14535 0.11261 -8.79671 0.18691 -0.00951247 -0.982331
-3.56977 -9.04406 2.13702 0.163832 -0.976926 -0.137023
-2.92134 9.37585 -5.54373 0.140136 0.98974 0.0278845
-9.28522 -7.84511 -6.00684 -0.911236 -0.410743 -0.0306422
-9.39237 -3.58509 -4.51192 -0.983808 0.140131 0.111736
-8.1096 -7.02954 9.01014 -0.508218 -0.218431 0.833068
0.0309925 4.1759 8.97902 -0.00240372 -0.154446 0.987998
-8.03243 -7.76277 8.77205 -0.498199 -0.415717 0.760905
-1.24613 -8.80608 2.85152 0.099529 -0.978506 -0.180609
-4.87574 -5.6329 9.62003 0.081552 0.0158044 0.996544
5.74085 3.97007 9.52373 -0.00391925 -0.126656 0.991939
-9.09654 4.63287 1.19863 -0.989081 -0.121005 -0.0841275
0.764237 8.38916 8.20496 -0.0598332 0.742943 0.666675
2.73882 -8.78084 -1.20185 -0.180177 -0.97878 0.097603
-4.61039 9.58648 -6.18323 0.0985495 0.993687 -0.0536114
7.81348 9.18311 -4.25789 0.416475 0.900583 0.124492
-9.19549 3.17578 3.52994 -0.976348 -0.153035 -0.152724
-1.09218 -8.04691 -8.54869 0.0825999 -0.594922 -0.799528
8.57864 8.2077 2.16375 0.770063 0.622813 -0.138227
-2.36687 4.58126 -9.22433 0.135276 -0.116564 -0.983927
-2.87608 8.75929 0.576363 0.186095 0.981304 -0.049108
2.46506 -6.15703 -9.3053 -0.134142 -0.0562454 -0.989365
4.70101 6.65596 -9.5521 -0.094229 0.130263 -0.986992
3.71577 1.89744 9.03613 -0.162615 -0.126444 0.978554
-9.59382 -4.86196 6.40621 -0.992737 0.0830787 0.0870132
-8.62546 -5.10771 8.74497 -0.682731 0.0713242 0.72718
-7.15677 -8.97992 -1.02429 -0.28772 -0.954826 0.0743276
-0.431037 2.91407 -8.76014 0.0368868 -0.186889 -0.981688
8.49141 2.76278 8.43991 0.708796 -0.15287 0.68865
-6.8694 0.388239 -9.0202 -0.214478 -0.0290307 -0.976297
-3.85198 9.35369 -3.91296 0.137963 0.980978 0.13656
4.73889 9.45989 -3.90097 -0.0957336 0.986715 0.131261
3.78623 -8.96836 1.17591 -0.167233 -0.98204 -0.0873504
-4.62951 -5.38881 -9.59084 0.0973979 0.0409068 -0.994404
-3.32586 -1.77227 -8.953 0.172646 0.124716 -0.977057
-5.51184 4.34918 -9.56558 0.0290562 -0.111944 -0.99329
9.07075 0.657409 4.72156 0.992017 -0.0483296 -0.116474
1.65503 -9.19268 -6.33026 -0.106588 -0.99024 -0.0897996
-6.49887 -9.37847 3.18696 -0.111086 -0.983639 -0.141827
-7.71766 8.79808 1.48141 -0.460226 0.881585 -0.104877
8.64835 2.33998 0.303966 0.983495 -0.178798 -0.0277142
7.12753 0.845677 -8.97585 0.281233 -0.0623072 -0.957615
-1.86746 8.31922 -8.42878 0.126798 0.678988 -0.723117
7.26212 -9.13239 -2.56158 0.291554 -0.945974 0.141881
-9.01545 -4.23639 0.840333 -0.986881 0.148821 -0.0625986
-9.56684 -5.57487 4.3458 -0.99345 0.0224254 -0.112042
3.43022 9.28299 3.84966 -0.147616 0.978767 -0.142211
-2.86091 -8.99854 -2.6296 0.163441 -0.973849 0.157813
-1.90949 -8.48913 8.26077 0.128545 -0.745593 0.653886
-3.19292 -9.12699 3.08317 0.157926 -0.974884 -0.157037
-8.94658 1.36828 -7.35085 -0.935263 -0.0963463 -0.340588
0.609094 8.33362 8.25262 -0.048223 0.722913 0.689255
-9.20535 2.99353 7.23875 -0.949655 -0.146419 0.276978
-9.29474 -2.50309 6.36792 -0.986499 0.135529 0.091931
-0.777436 9.11908 6.33579 0.0556649 0.993979 0.0943761
0.257125 -0.254667 -8.40054 -0.0273257 0.0270656 -0.99926
8.93316 -8.24469 -4.22129 0.816964 -0.562102 0.128889
9.5967 6.61721 6.28205 0.990287 0.121478 0.0676318
2.87655 -6.19261 -9.36049 -0.140194 -0.0604018 -0.98828
-8.76601 -8.28221 -3.43563 -0.784726 -0.600869 0.152187
4.46276 -4.81457 -9.5355 -0.107968 0.0881438 -0.990239
-9.15234 1.63109 -6.64031 -0.982608 -0.106506 -0.152111
2.78258 5.67377 -9.35897 -0.138861 -0.0126316 -0.990231
4.30574 -9.56453 -5.74827 -0.113791 -0.9935 0.00298497
7.44884 -1.28856 -8.90089 0.372947 0.0922442 -0.923256
-9.57186 -6.03449 -4.40878 -0.99348 -0.0331146 0.109093
5.47507 9.12962 0.60223 -0.0401794 0.998249 -0.0434072
6.13664 -6.09565 -9.6465 0.0459838 -0.0403817 -0.998126
9.64394 -5.57041 5.245 0.998347 0.0222643 -0.0529873
3.87564 9.14871 -7.7662 -0.138854 0.901481 -0.409942
-1.59798 -7.62329 8.85906 0.11051 -0.424451 0.898682
9.03919 -6.7482 -0.0361032 0.982716 -0.185101 0.00270456
9.47481 -5.49718 3.63444 0.990277 0.0317047 -0.135446
8.11109 -3.54837 8.90713 0.534456 0.149424 0.831883
-9.38093 -3.08915 -6.33 -0.986552 0.141377 -0.082019
8.99074 -0.00931028 6.97034 0.970383 0.00070517 0.241569
8.80316 -1.42269 -2.73132 0.977685 0.112019 0.177719
9.23709 -4.07682 7.62798 0.922155 0.130833 0.364024
-7.14825 5.32162 9.50913 -0.227499 -0.0478007 0.972604
9.29719 7.82135 5.57951 0.914728 0.403428 -0.0227673
4.61864 -8.66494 8.64423 -0.108306 -0.706807 0.699066
2.90272 4.3781 -9.27626 -0.145123 -0.124486 -0.981551
2.29104 1.28487 8.70907 -0.170214 -0.10769 0.979505
4.24516 -2.41709 9.188 -0.135846 0.138869 0.980949
9.09714 -4.82016 -0.921524 0.992019 0.107406 0.0660466
-9.3106 -5.12686 -7.73694 -0.922143 0.0670826 -0.380987
9.12272 6.2613 -0.723774 0.99541 0.0803903 0.0519351
9.5853 6.06988 -4.54711 0.994073 0.0377421 0.101952
1.58291 8.57585 1.09467 -0.139399 0.985124 -0.10049
-8.75892 -8.32724 3.57977 -0.776146 -0.612447 -0.150021
4.50927 2.75527 -9.27085 -0.118092 -0.142883 -0.982669
-0.204153 -6.99606 8.98587 0.0154513 -0.248296 0.968561
8.02044 8.88809 3.12958 0.516148 0.84273 -0.152958
-8.05279 9.18026 -6.06112 -0.47658 0.878277 -0.0387448
9.00118 -4.30588 0.247509 0.988991 0.146756 -0.0189738
4.83506 -9.61772 -5.74238 -0.0842873 -0.996435 0.00360338
9.60851 5.13762 -4.98467 0.995271 -0.062591 0.0742793
-2.06436 -9.08367 3.87271 0.131523 -0.979023 -0.155615
9.63813 6.18681 -6.21592 0.996945 0.0531134 -0.0572607
0.991511 -8.60039 -1.81483 -0.0903179 -0.984011 0.153508
-0.679408 8.43126 0.505002 0.0698957 0.996183 -0.0522798
8.16563 9.11278 -5.40306 0.514706 0.856323 0.0422883
7.83433 8.90927 -2.6447 0.466939 0.871808 0.148048
-6.98329 9.42775 -7.06752 -0.196873 0.956671 -0.214528
-4.40788 -9.15389 -2.00004 0.130499 -0.983547 0.124922
1.8298 9.04521 -3.82312 -0.12255 0.979508 0.159831
9.12156 -0.255888 -5.55216 0.999357 0.0187021 0.030578
1.15996 6.10872 -9.16181 -0.0796653 0.052241 -0.995452
-6.01072 -1.94943 -9.24591 -0.0345785 0.118481 -0.992354
9.3289 -2.65142 6.19113 0.988599 0.13764 0.0610537
5.26965 -9.42274 -3.33334 -0.0554723 -0.988577 0.14014
1.67849 6.11761 9.21038 -0.107217 0.0523982 0.992854
5.03505 9.63274 5.67609 -0.0699925 0.997487 -0.011026
8.9546 2.54603 -2.67972 0.973836 -0.158687 0.162674
5.02733 9.26509 -2.33296 -0.0822679 0.987814 0.132117
-3.87992 -2.78749 9.18939 0.147657 0.148353 0.977849
3.39877 -9.02446 2.20263 -0.166415 -0.97592 -0.141022
-4.26613 -0.298704 8.99632 0.149039 0.0229237 0.988566
7.20596 4.00625 -9.36477 0.252317 -0.130401 -0.958818
-4.60749 4.47484 9.51697 0.10125 -0.108123 0.988968
9.38946 -3.51715 4.57254 0.984045 0.140933 -0.108599
-1.29001 6.17588 9.16882 0.0873116 0.0634621 0.994158
8.72922 1.35745 7.81649 0.860848 -0.0983432 0.499268
-1.17683 7.38623 -8.91477 0.0851043 0.354827 -0.93105
-7.74784 9.10006 7.36836 -0.398528 0.867541 0.297569
8.27084 4.91523 -9.0079 0.556574 -0.0865146 -0.826281
3.83699 0.431082 -8.93051 -0.169656 -0.0339488 -0.984918
6.12319 0.0599239 9.11322 0.0561324 -0.00440111 0.998414
-7.5287 9.35393 -4.72449 -0.326256 0.940336 0.0965672
7.94748 -0.751069 -8.58987 0.562611 0.0584098 -0.824656
-9.24578 -5.1927 2.0871 -0.989936 0.0679009 -0.124166
9.20109 -2.11634 -6.69815 0.978948 0.126583 -0.160115
2.48425 -8.86669 -7.8626 -0.145205 -0.864057 -0.481996
-0.746276 -8.56866 7.97758 0.0581306 -0.816354 0.574619
-5.61976 9.60517 4.70832 0.017315 0.995565 -0.0924668
1.20765 -9.09167 -6.75445 -0.0841052 -0.979813 -0.181362
-9.47876 4.88166 -7.14894 -0.969565 -0.0839633 -0.229986
-8.78689 -8.59455 -6.24407 -0.740263 -0.66889 -0.0677996
-9.4956 -5.81663 -3.7556 -0.991151 -0.00534014 0.132632
-2.90701 7.0145 9.25058 0.144336 0.222126 0.964276
8.26137 7.12901 8.8817 0.563089 0.243384 0.789744
4.3025 -9.53306 5.00401 -0.115143 -0.990519 -0.0749303
-8.83137 -1.70238 -7.70681 -0.885063 0.116269 -0.450717
-5.80878 2.99749 -9.38985 -0.00456361 -0.140339 -0.990093
8.70245 -4.63635 -8.60831 0.720407 0.107156 -0.685223
-4.74004 -5.30926 9.59774 0.0908022 0.0481616 0.994704
-9.40919 -6.87822 3.79752 -0.974333 -0.180341 -0.134729
0.541002 -4.69225 -9.06208 -0.0401096 0.119146 -0.992066
-5.24644 -8.16996 -9.10098 0.0577569 -0.517437 -0.85377
4.49107 9.10186 1.44963 -0.129434 0.986621 -0.0991239
9.50036 -7.18654 5.32907 0.970559 -0.236195 -0.0471926
8.60252 1.50885 1.41613 0.983413 -0.131716 -0.124702
9.03007 2.98259 -2.69832 0.973996 -0.163076 0.157283
-8.47052 7.09147 8.72869 -0.637825 0.235683 0.733235
-9.02728 -3.58991 -1.99024 -0.97749 0.165034 0.13144
-2.3992 4.27232 -9.18922 0.138231 -0.134609 -0.98121
-0.998617 8.4467 0.161865 0.10005 0.994842 -0.016704
-4.63942 -9.5541 -6.5927 0.0977762 -0.988045 -0.119191
8.3995 8.19985 -0.833276 0.74568 0.663139 0.0648738
9.26334 -6.28319 2.21343 0.98866 -0.0785296 -0.128004
-3.11485 -8.41741 -8.58804 0.154949 -0.664821 -0.730755
9.14268 -4.22401 2.10872 0.981592 0.139792 -0.130135
7.53083 -4.34362 -9.30932 0.331899 0.118447 -0.935849
-0.741008 -5.0771 9.11116 0.0534022 0.0843336 0.995006
-9.25799 -5.79129 -7.91209 -0.90238 -0.00221682 -0.430935
-2.37706 -9.23337 4.6471 0.135129 -0.984476 -0.112012
-8.77033 2.935 -8.14479 -0.808309 -0.153413 -0.56842
4.92034 -9.17494 -1.67755 -0.0952183 -0.989515 0.108595
-1.58872 8.66612 -1.79733 0.132559 0.980285 0.146527
-0.456435 -5.18427 -9.10726 0.0333547 0.0738442 -0.996712
-5.34571 9.65081 5.84852 0.044012 0.998992 0.00882613
-6.86698 3.23979 -9.33102 -0.184073 -0.143486 -0.972383
-2.54151 -6.04455 -9.32108 0.135474 -0.0384044 -0.990036
3.32329 5.93543 9.43437 -0.139611 0.0212102 0.989979
6.80853 -9.07142 1.08801 0.195203 -0.977735 -0.0770082
-2.34576 4.46659 -9.20739 0.135486 -0.124054 -0.982982
-8.47459 -1.24142 -0.211104 -0.992531 0.120108 0.0213858
-7.64857 -8.74424 0.262047 -0.454529 -0.890494 -0.0205829
1.75677 -8.57628 -8.12442 -0.121185 -0.786655 -0.605383
-6.9643 -9.30823 7.50411 -0.197139 -0.926057 0.321797
-9.42322 3.49206 -4.95604 -0.986832 -0.139379 0.0820767
-8.16787 4.02361 -8.95266 -0.540171 -0.136663 -0.830385
9.28299 2.21728 -5.72211 0.991828 -0.127403 0.00683519
3.4916 -8.88309 -0.730324 -0.179075 -0.982118 0.0581101
4.81669 9.59976 5.21795 -0.0859758 0.994715 -0.0561277
9.07466 7.70735 -3.25246 0.901032 0.40702 0.149919
-4.75787 7.47044 9.37696 0.0940404 0.310249 0.945992
-3.46861 0.832994 8.88539 0.178951 -0.0658478 0.981652
8.92357 -7.38721 -1.27378 0.930981 -0.353538 0.0910233
9.06162 -4.68739 0.5442 0.992011 0.119521 -0.040349
-8.66673 0.363943 -2.43034 -0.982945 -0.032802 0.180951
-1.06468 -1.00238 -8.50267 0.102451 0.0968422 -0.990013
3.67914 6.69112 9.42371 -0.13657 0.143497 0.980182
6.7834 9.03825 -0.39327 0.193032 0.980755 0.02928
9.1919 -1.4657 -5.48732 0.994613 0.0966784 0.0374037
-1.35592 -3.54195 -8.94317 0.1003 0.172935 -0.979813
-9.34487 -4.32883 7.41974 -0.945888 0.118437 0.302107
-1.09453 -4.32953 9.04746 0.0790543 0.14196 0.986711
6.17579 -1.07062 9.15099 0.0640481 0.0743456 0.995174
2.972 -9.30285 4.51164 -0.144549 -0.982647 -0.116238
9.4317 3.86762 -6.80512 0.977446 -0.132407 -0.164524
9.15299 6.23325 -8.08381 0.870474 0.0648701 -0.487921
9.37519 -3.5779 -4.37451 0.982773 0.14114 0.119321
-6.41732 -8.45977 -8.8827 -0.0967519 -0.621334 -0.77755
-3.38885 -4.31522 9.34036 0.144365 0.123782 0.981752
9.42592 5.34238 7.45558 0.952202 -0.0465882 0.301896
-1.36603 -6.10879 -9.17954 0.091434 -0.0517688 -0.994465
5.1466 -5.37148 9.63187 -0.0613705 0.0419211 0.997234
2.22422 2.84048 -8.93113 -0.148362 -0.168636 -0.974449
8.68657 -8.71335 -6.06389 0.701551 -0.711497 -0.0399643
9.07356 -6.5726 0.369329 0.989161 -0.144276 -0.0272796
9.60679 5.50226 -6.63655 0.991786 -0.0294684 -0.124468
3.89606 -4.62362 9.44761 -0.131977 0.103145 0.985872
3.39376 -8.84404 -0.154418 -0.183337 -0.982968 0.0127369
-1.39163 -6.97253 -9.06232 0.0956236 -0.233212 -0.967713
-3.10364 -2.21754 8.97579 0.169153 0.144904 0.97488
8.86688 -1.44792 3.06448 0.977732 0.110123 -0.178643
8.50104 -8.0333 -0.0829277 0.797191 -0.60369 0.00665652
-6.83992 -9.37918 3.53559 -0.174976 -0.974557 -0.140081
-1.68282 9.16775 6.57406 0.108688 0.984506 0.137604
9.12626 7.26866 2.53419 0.945319 0.293897 -0.141409
-4.66142 7.76218 9.25665 0.101967 0.393862 0.913496
8.25983 8.32042 -0.506793 0.693813 0.719023 0.0403554
6.83063 -9.1182 -1.62715 0.195359 -0.974858 0.107176
-6.30147 2.12814 -9.25092 -0.0821792 -0.125396 -0.988697
-5.08218 -5.68927 -9.63609 0.0663497 0.00955616 -0.997751
-9.11479 5.17769 0.654345 -0.99612 -0.0742186 -0.0473017
9.17031 -4.21175 -2.32438 0.980883 0.1384 0.136801
0.203364 8.46192 1.13429 -0.0207714 0.993545 -0.111522
-9.22959 -5.69646 7.96928 -0.893492 0.00939838 0.44898
-8.28023 8.60462 -7.73482 -0.583677 0.700846 -0.410043
-3.06548 -7.412 -9.16149 0.147964 -0.322909 -0.934792
8.55113 7.04396 8.67103 0.66646 0.224684 0.710879
8.15688 6.49903 -9.08352 0.515279 0.110103 -0.849921
1.50416 -5.99028 9.19774 -0.0985818 -0.0322221 0.994607
-1.48068 -0.197349 8.50545 0.137623 0.0196111 0.990291
9.53986 6.81215 -4.81676 0.983393 0.159155 0.0872272
-7.85692 3.99014 -9.12343 -0.435983 -0.13576 -0.889656
-5.39936 -9.6517 -5.60075 0.0390541 -0.999056 0.0190425
7.35947 -9.40807 4.72335 0.281891 -0.954657 -0.0957503
-0.192601 8.23345 -8.33343 0.0155039 0.685865 -0.727564
-8.94856 -3.40381 -1.62472 -0.977983 0.173073 0.116596
6.58405 -9.12008 1.21164 0.143072 -0.986162 -0.0837608
6.38613 9.38999 -7.51742 0.0871784 0.943634 -0.319303
3.72514 -0.343869 8.90826 -0.174016 0.0274225 0.984361
-8.40859 -8.95911 5.84882 -0.598611 -0.80098 0.00975351
-9.31678 7.16932 3.60134 -0.958147 0.249115 -0.141053
-1.31069 5.02523 -9.14788 0.0892597 -0.0874677 -0.99216
-8.72116 1.04116 -2.49622 -0.980069 -0.0883148 0.177945
9.3729 -4.76538 -3.26215 0.984946 0.09759 0.142682
-6.28854 -6.3251 9.62479 -0.0681001 -0.0735798 0.994962
-7.73904 2.87471 8.99651 -0.427795 -0.149992 0.891344
-4.11546 -7.12092 -9.40066 0.125833 -0.230712 -0.964851
-9.08689 -6.42462 8.16625 -0.850144 -0.0969559 0.517546
8.93138 3.82127 8.14808 0.83 -0.143244 0.539056
5.26428 -9.12386 0.715475 -0.0647529 -0.996577 -0.0513906
-5.49228 -3.57731 9.4668 0.0323323 0.136505 0.990112
8.02916 9.08291 6.92391 0.47919 0.856032 0.193873
-9.31969 5.79786 2.49386 -0.990932 0.00324564 -0.134327
4.55409 -9.44985 -3.96866 -0.106894 -0.985727 0.13006
8.98719 3.30896 -2.0494 0.975994 -0.169568 0.136687
4.85216 -4.45509 9.53796 -0.0855781 0.108237 0.990435
-1.72578 9.10792 6.93121 0.112356 0.969313 0.218651
8.66853 -6.938 -8.58727 0.707653 -0.200523 -0.677508
-8.37436 3.2524 -8.65477 -0.642694 -0.154359 -0.750412
0.6541 1.2322 -8.49283 -0.0647326 -0.117903 -0.990913
6.57672 -5.9401 -9.61642 0.113941 -0.0202444 -0.993281
6.40601 -0.60317 9.10318 0.108687 0.0437975 0.993111
-8.41529 8.53453 -2.85438 -0.675062 0.72154 0.153851
9.45764 -5.37742 -7.35609 0.96005 0.0429654 -0.276509
0.129788 4.18802 -8.98153 -0.0100496 -0.153727 -0.988062
2.97677 -2.61508 9.01569 -0.164134 0.156108 0.974007
6.79066 -9.23251 7.78339 0.163374 -0.902166 0.399256
-9.14274 -0.830478 -5.51226 -0.997642 0.0588619 0.0352866
2.23274 7.40863 -9.03449 -0.134995 0.340589 -0.930471
5.72327 -5.90877 9.6597 -0.00570416 -0.0161136 0.999854
8.39343 8.92015 -6.52168 0.598715 0.792621 -0.115297
2.59628 -0.552041 8.70532 -0.183441 0.0484446 0.981836
-8.0466 2.90917 -8.83144 -0.533261 -0.152631 -0.832067
-6.60874 1.50897 9.14428 -0.146286 -0.100301 0.984144
-9.65479 5.82678 -5.44229 -0.99937 0.00622442 0.0349473
-5.62583 7.52554 -9.41269 0.0172488 0.319374 -0.947472
-9.21553 -1.79332 -6.23812 -0.99099 0.112573 -0.0725629
4.93284 9.44242 7.30716 -0.0808797 0.960284 0.267046
-9.3983 4.93742 3.32808 -0.986356 -0.0843797 -0.14136
5.15557 1.38779 9.16561 -0.0744277 -0.0931727 0.992864
8.87108 -7.48118 1.11422 0.918644 -0.386561 -0.0816276
-9.25653 -2.20264 6.34674 -0.98771 0.127872 0.0898795
-5.77997 9.6277 4.95871 -0.000752962 0.997134 -0.0756567
-8.45495 -0.361051 -1.02694 -0.994083 0.0369427 0.102152
3.41609 0.603041 -8.86231 -0.181428 -0.0487423 -0.982195
7.03454 1.01875 -9.01395 0.253706 -0.073467 -0.964487
-5.7478 1.26158 9.17871 0.00362883 -0.0853737 0.996342
-8.86664 -0.382087 -7.38231 -0.931521 0.0294187 -0.362495
-5.0188 9.15201 -1.36198 0.0878561 0.991862 0.0921436
5.71765 -1.94573 -9.2493 -0.00754457 0.118201 -0.992961
-1.81309 9.13643 -6.84584 0.115772 0.973569 -0.196876
-1.22132 2.04686 -8.6607 0.105709 -0.162151 -0.981088
-1.56262 -9.1252 -4.58257 0.104553 -0.986957 0.122414
-0.267691 1.47354 8.5061 0.0265635 -0.136992 0.990216
4.83301 6.95006 -9.51699 -0.0866032 0.186894 -0.978555
2.5393 8.68235 -0.178696 -0.183784 0.982836 0.0160198
0.689176 2.4604 8.68779 -0.0607225 -0.179978 0.981795
5.86673 -0.767491 -9.14325 0.0138304 0.0545943 -0.998413
-5.72438 9.60775 4.72305 0.00568144 0.995787 -0.0915206
3.61966 -1.01419 -8.92581 -0.17382 0.0777665 -0.981702
-1.09907 8.58533 1.64587 0.100293 0.984603 -0.143173
9.07548 8.05244 -6.89836 0.853132 0.486441 -0.188521
-2.7714 6.55473 9.31188 0.140485 0.124747 0.982192
-6.05189 -0.870465 -9.14398 -0.0432118 0.0615022 -0.997171
-8.65486 -5.13619 -8.71973 -0.693261 0.0688061 -0.717395
9.29364 2.40237 5.30199 0.989566 -0.132929 -0.0555859
0.695876 -9.01208 -4.26996 -0.0523175 -0.987666 0.147576
-9.1781 4.12855 7.78458 -0.902727 -0.129935 0.410123
9.31242 -6.08859 2.49162 0.989869 -0.0453093 -0.134563
5.74063 -9.27553 -2.15798 -0.00440993 -0.992073 0.125588
8.94609 0.578775 7.17686 0.953652 -0.0435963 0.297736
0.691923 -2.22281 8.64518 -0.06242 0.17329 0.982891
-3.25339 2.18178 8.99647 0.168567 -0.141987 0.97541
-1.52168 9.20283 -5.73704 0.0993663 0.995038 0.00506881
6.267 9.44391 3.49828 0.0697452 0.987943 -0.138219
8.22687 9.05875 -6.33273 0.537359 0.839403 -0.0815305
-5.8789 9.65214 -5.38484 -0.0124909 0.999105 0.0404026
-3.32433 -9.29763 7.08116 0.144298 -0.961983 0.231876
1.15654 -1.598 8.58445 -0.105159 0.139777 0.984583
9.17408 -7.68344 -3.80444 0.911728 -0.386101 0.140282
7.09621 9.50674 -5.08351 0.21691 0.973794 0.0683818
-8.45656 0.266758 -1.07133 -0.993975 -0.0273157 0.106152
-8.91533 -7.99471 3.19447 -0.849605 -0.504871 -0.152567
-0.763788 -9.02691 -4.34533 0.0568647 -0.988123 0.142755
-9.53208 -4.52877 4.70117 -0.98991 0.104839 -0.0953259
-8.98189 -2.83438 -2.55416 -0.973874 0.164236 0.156832
8.0472 8.84568 2.98883 0.530641 0.833667 -0.153034
-1.21532 2.20089 8.686 0.103755 -0.168037 0.980305
-4.08741 2.56949 9.18759 0.141838 -0.143353 0.979455
8.64567 -0.872729 -7.87641 0.843644 0.0669778 -0.532708
-9.27632 -5.2691 2.28645 -0.989725 0.0593982 -0.13006
9.12838 -7.98124 4.46927 0.877341 -0.465938 -0.11478
-8.38445 -8.90394 6.6632 -0.597731 -0.788987 0.142188
8.54604 -6.04127 8.84356 0.649392 -0.0365802 0.759574
-9.2324 -7.95718 5.54017 -0.894851 -0.445529 -0.027311
3.96673 -3.24886 9.27243 -0.139999 0.148413 0.978966
4.85642 -7.81693 9.25303 -0.0889273 -0.407764 0.908746
9.20354 3.35771 -3.39915 0.976338 -0.152951 0.152873
-8.11373 -1.47511 -8.54368 -0.610654 0.106435 -0.784712
0.980452 7.89176 -8.64498 -0.0745414 0.536501 -0.840601
-6.58538 2.32945 9.24618 -0.134551 -0.132373 0.982025
-9.21474 1.63683 5.78863 -0.994471 -0.104988 0.00211847
-8.62926 -0.501753 2.192 -0.983788 0.0460085 -0.173333
1.27532 1.94199 8.64959 -0.1106 -0.157023 0.981382
6.1676 4.00881 -9.51858 0.0527456 -0.125762 -0.990657
8.87807 -3.2435 -1.24286 0.979102 0.179399 0.0957895
3.21408 -9.07957 2.76625 -0.161606 -0.974562 -0.155282
0.213627 8.48085 -1.29192 -0.0215547 0.992049 0.123996
-4.84792 -6.29387 9.60148 0.0838377 -0.0695235 0.994051
7.94893 3.34201 -8.96798 0.484226 -0.151156 -0.861787
7.02568 -9.51872 6.42416 0.20143 -0.975247 0.0912078
9.41668 -5.43266 -3.23536 0.989305 0.0393926 0.140442
-1.90474 -9.00059 3.50013 0.128861 -0.977318 -0.168058
-8.20033 8.50959 1.71952 -0.636889 0.761618 -0.119625
-0.691905 8.46212 -0.917745 0.0697216 0.993365 0.0914557
-9.00587 4.1278 0.945711 -0.985556 -0.154078 -0.0702756
-9.24187 -1.89312 5.62748 -0.993038 0.116199 -0.0193292
-7.68731 -1.04902 -8.76883 -0.458868 0.0783481 -0.885043
1.9717 -9.08301 3.94608 -0.127385 -0.979859 -0.153782
4.41558 -9.57332 5.52445 -0.108744 -0.993685 -0.0276685
-6.56849 -2.87993 -9.3257 -0.126505 0.141547 -0.981815
8.83639 2.89211 -1.4569 0.977495 -0.178516 0.112408
8.77442 4.34516 -8.4777 0.755002 -0.123776 -0.643935
9.22574 -6.44375 7.90677 0.896037 -0.0989706 0.432808
-3.74821 6.20039 -9.48259 0.133273 0.0584368 -0.989355
-9.28476 5.52525 2.26064 -0.991175 -0.0312909 -0.128817
-4.08362 9.15454 2.34375 0.144247 0.97982 -0.138369
-6.42236 -8.95375 -8.36603 -0.0973596 -0.803356 -0.587486
5.38697 -9.11359 -0.182821 -0.0512085 -0.998598 0.0134154
3.20621 9.22878 -7.27077 -0.14652 0.948311 -0.281492
4.44312 7.02763 -9.46177 -0.110433 0.206312 -0.972235
-1.47772 7.82604 -8.73791 0.105289 0.499681 -0.859787
7.3156 -7.98603 8.99631 0.287232 -0.472914 0.832977
-1.59299 8.87372 7.59045 0.110041 0.903865 0.413424
-0.167779 8.06137 8.48054 0.0134651 0.614857 0.788524
-8.33678 8.34642 -8.03183 -0.608479 0.611891 -0.505315
-7.82273 5.76449 -9.29903 -0.403567 -0.00110978 -0.914949
9.18139 -3.67663 2.93874 0.976691 0.152069 -0.151492
-8.43564 -0.41355 0.794769 -0.995786 0.0427979 -0.0811074
-3.1042 1.64162 -8.89697 0.176275 -0.120526 -0.976934
8.82447 8.08638 7.58933 0.777428 0.512754 0.364265
-7.54806 0.669095 8.80919 -0.415529 -0.0512407 0.908135
9.24917 6.04718 -1.98799 0.991963 0.0401822 0.119975
5.34921 9.22627 -1.84645 -0.0524087 0.992016 0.114709
-6.92698 -9.5282 4.9133 -0.181672 -0.980029 -0.0808601
-9.65921 -5.768 -5.94339 -0.999791 0.000632764 -0.0204198
-9.38791 -2.98347 -5.74961 -0.990106 0.140288 0.00304669
-3.40622 -0.601419 -8.8604 0.181635 0.0486591 -0.982161
2.0477 -8.61364 -0.672307 -0.16683 -0.984047 0.0618062
-0.694805 7.60447 -8.78413 0.0532928 0.434912 -0.898894
-8.89296 2.4603 2.39128 -0.974252 -0.160715 -0.158124
3.0343 -8.78047 0.355724 -0.187061 -0.981884 -0.0301837
8.26136 8.35421 0.951891 0.685767 0.724112 -0.0733817
-3.25655 9.29668 -4.1321 0.146965 0.980105 0.133401
-3.11561 -6.59877 -9.35588 0.142433 -0.13037 -0.981181
-9.32802 3.68003 -7.17038 -0.958619 -0.139434 -0.248209
-9.52997 6.10549 7.07514 -0.976561 0.0429199 0.21092
8.8506 8.5039 -6.38535 0.76538 0.637071 -0.0912888
8.88157 -0.063974 7.32744 0.938235 0.00494506 0.345964
9.25337 -2.99378 4.10496 0.979503 0.147694 -0.136965
9.33329 7.734 -5.99466 0.925501 0.377651 -0.0287693
-8.79249 7.78261 -1.71122 -0.870835 0.477404 0.117186
-5.11831 -5.27751 9.62574 0.0637541 0.0504914 0.996688
4.6694 3.40351 9.38355 -0.10323 -0.141934 0.984479
-8.24149 8.93517 4.2201 -0.560991 0.817721 -0.128926
-8.63827 -8.40316 3.2934 -0.742336 -0.652055 -0.154149
9.29034 2.33487 -5.41554 0.990421 -0.131003 0.0436487
7.50489 -7.48109 -9.16088 0.330093 -0.32394 -0.886624
9.29066 -4.69642 -2.74474 0.984245 0.105896 0.141591
4.81002 0.936845 9.09706 -0.108203 -0.0670777 0.991863
-2.57679 -7.62516 -8.9999 0.145156 -0.399227 -0.905289
-9.3089 -7.76725 5.29636 -0.919936 -0.388626 -0.051846
2.75372 8.78792 -8.06953 -0.151315 0.823137 -0.547312
9.28093 -7.62131 6.88846 0.917644 -0.353226 0.1821
-8.70201 2.33372 -1.1461 -0.9801 -0.172911 0.0975019
5.03253 -9.16096 1.44337 -0.086215 -0.991591 -0.0965063
-4.96426 8.91566 -8.40664 0.0830588 0.792351 -0.604385
1.70841 -9.16864 -6.5879 -0.109923 -0.983988 -0.140303
0.934844 -7.7235 8.74001 -0.0707715 -0.474095 0.877625
3.25612 -4.50953 -9.34442 -0.144218 0.114206 -0.982933
-8.9116 1.89533 3.00106 -0.975694 -0.133923 -0.173451
3.73862 6.35833 -9.46998 -0.133915 0.0834841 -0.98747
8.98995 2.51167 2.92221 0.974006 -0.154869 -0.16531
-9.30257 -6.70074 2.8503 -0.977952 -0.153143 -0.141976
-9.62069 5.40635 -6.48303 -0.994394 -0.0387288 -0.098394
2.56798 -0.969393 -8.72802 -0.179987 0.0823128 -0.980219
-5.94196 -6.18906 -9.64855 -0.020305 -0.0532706 -0.998374
-4.10193 4.15918 -9.42043 0.12762 -0.125694 -0.983826
9.04513 -3.2309 2.52974 0.974696 0.164414 -0.151445
-5.12721 -9.10613 0.545352 0.0796751 -0.996028 -0.0397395
5.92588 -1.57765 -9.20691 0.0221867 0.102196 -0.994517
-7.46484 -6.46581 -9.39948 -0.305995 -0.100301 -0.946735
8.66669 -1.94633 1.41482 0.980481 0.155718 -0.120038
6.79608 9.58356 5.47573 0.153843 0.987567 -0.0323038
9.10098 -0.499434 -6.38749 0.993781 0.0364536 -0.105221
8.15073 -8.26388 8.31515 0.545179 -0.583763 0.601665
5.85676 -0.972525 -9.15598 0.0122362 0.0679605 -0.997613
9.02909 -2.26681 -3.37104 0.975647 0.143307 0.16606
0.0695542 8.85664 -7.39286 -0.00539763 0.930198 -0.367017
-9.06652 0.651121 -4.68857 -0.991721 -0.0479624 0.119119
7.7593 8.79164 -1.60825 0.471851 0.874549 0.111896
-4.55032 -8.37131 8.89118 0.11201 -0.599626 0.792403
-0.127068 -3.02764 -8.77441 0.0108549 0.187605 -0.982185
-4.18527 -9.00054 -0.720212 0.152238 -0.986848 0.054351
-0.178547 -3.21138 -8.81007 0.014972 0.186153 -0.982407
9.13631 -4.30016 1.97704 0.982691 0.136914 -0.124795
8.19196 -8.70723 7.67571 0.551227 -0.736951 0.39122
9.6416 5.75521 5.16313 0.998206 -0.00210778 -0.0598439
-6.13767 -9.40133 3.14179 -0.0508594 -0.988728 -0.140821
1.43965 -5.46929 -9.18869 -0.0953382 0.039627 -0.994656
8.5157 -8.05329 0.779357 0.794393 -0.604361 -0.0607207
4.73844 -9.36813 -3.24781 -0.0995669 -0.984714 0.142913
0.37032 5.25928 9.10991 -0.0271062 -0.0657914 0.997465
7.97619 9.22234 5.52361 0.451634 0.891727 -0.0291534
-9.27374 3.98347 -7.49382 -0.935392 -0.133236 -0.327552
7.21401 9.33371 3.79921 0.257187 0.956626 -0.136826
-5.98938 -9.1318 0.591524 -0.0332234 -0.998539 -0.0426204
3.54232 -9.39954 -4.63245 -0.140178 -0.984573 0.104721
-8.09255 7.59493 8.81775 -0.514987 0.365985 0.77514
9.12528 -1.65711 -6.81158 0.975664 0.108523 -0.19053
-5.16646 -8.72538 8.65195 0.0660684 -0.719084 0.691776
-9.47123 3.5808 -5.8823 -0.990575 -0.136269 -0.0138403
-2.46901 9.13005 -7.22446 0.139714 0.94887 -0.283065
9.14635 0.879678 -6.00667 0.997431 -0.0620692 -0.0357538
7.7214 6.17413 9.33037 0.374764 0.0545661 0.925513
-6.64723 -2.90619 9.31874 -0.141736 0.142108 0.979651
-0.0337997 -5.90785 9.1213 0.00247647 -0.020381 0.999789
6.27543 9.26981 2.25848 0.0769551 0.988616 -0.129292
-9.16315 -2.85903 3.63911 -0.976424 0.151392 -0.153874
5.80786 -9.50223 7.22415 0.00414082 -0.969753 0.244055
-7.72103 9.09027 3.38391 -0.407881 0.900821 -0.148844
-9.15318 6.16752 8.09151 -0.870015 0.0546737 0.489984
-9.18259 -2.76973 -7.19877 -0.951793 0.144494 -0.270578
9.11986 -5.52457 0.208803 0.9993 0.0341603 -0.0152823
9.41584 4.42942 -3.82042 0.984145 -0.114757 0.135241
-8.51481 -4.35189 8.74329 -0.657576 0.12351 0.743195
-4.44438 -9.39748 3.67603 0.114912 -0.983643 -0.138712
-6.33793 4.76468 9.59098 -0.0764831 -0.0894187 0.993053
7.70497 8.76215 -8.09356 0.398842 0.756871 -0.517755
4.64125 8.97426 8.27306 -0.105954 0.820101 0.562324
-5.13804 3.93747 -9.49746 0.0652723 -0.128622 -0.989543
8.61495 -1.82486 1.12529 0.983108 0.152824 -0.10072
9.26144 -5.12418 2.2475 0.988839 0.0738236 -0.129416
-5.62865 8.52742 -8.86388 0.0177712 0.642008 -0.766492
-9.11264 0.614865 6.31695 -0.994841 -0.0445038 0.0911598
6.93875 9.02212 0.786031 0.230245 0.971426 -0.0576053
-9.58828 6.75656 5.43848 -0.988569 0.146424 -0.0359412
-8.42836 6.60673 8.8799 -0.612694 0.131399 0.77932
6.1711 1.40482 -9.17958 0.0622876 -0.0936317 -0.993657
8.36702 0.376599 8.20333 0.740032 -0.0301462 0.671895
0.742143 7.10011 8.97745 -0.0550507 0.274373 0.960046
1.12008 -7.34257 8.926 -0.0813218 -0.342008 0.936172
-6.63186 -9.57307 -6.52955 -0.124783 -0.986363 -0.107321
-7.91759 9.17146 6.77942 -0.440598 0.882915 0.16228
-4.41118 -5.07858 -9.5508 0.109776 0.0686938 -0.99158
-9.49134 -6.33502 -7.18196 -0.968737 -0.0774639 -0.235686
-4.72722 -9.09482 1.03629 0.114562 -0.990676 -0.0737398
0.0919885 4.25741 -8.99186 -0.00709305 -0.149811 -0.988689
-3.69865 9.10099 2.38584 0.157674 0.977075 -0.143047
9.43438 -5.29936 -3.40424 0.988856 0.0523795 0.139359
-9.11813 1.67143 -4.43548 -0.985123 -0.110725 0.131426
-1.68446 6.62458 9.1606 0.108967 0.148276 0.982924
9.45174 -5.04151 3.64771 0.987858 0.0744859 -0.136341
4.85117 5.65253 9.61829 -0.0832225 -0.0136778 0.996437
0.901664 -9.08622 6.65221 -0.0645746 -0.98501 0.159953
-2.39392 8.0914 8.70758 0.144585 0.568987 0.809536
3.65226 8.89302 -0.25021 -0.176617 0.984074 0.0201341
-2.01546 -8.99098 3.35795 0.134852 -0.976294 -0.169306
4.27987 -9.11146 1.79871 -0.139577 -0.983206 -0.117578
-9.02485 1.81553 -3.71071 -0.97883 -0.122928 0.163646
0.780428 -9.11996 6.32815 -0.0558549 -0.994108 0.0928964
0.704574 8.85183 3.33005 -0.0569841 0.981563 -0.182445
-3.17151 4.92965 9.3751 0.142307 -0.085836 0.986094
-5.85312 -1.79729 9.23184 -0.0112376 0.112214 0.993621
5.01066 -2.57114 -9.29625 -0.0824466 0.137423 -0.987075
-8.68958 -8.69706 -5.26525 -0.704574 -0.707355 0.0567917
5.64339 5.90139 -9.659 -0.0144707 0.0152099 -0.99978
7.56127 5.23338 9.38467 0.330565 -0.0570564 0.942057
-2.25691 1.72368 8.75784 0.163991 -0.134659 0.977228
1.32397 5.40222 -9.17501 -0.0891632 -0.0478017 -0.994869
-9.43094 4.30359 -7.09296 -0.967871 -0.117645 -0.222227
1.08913 -9.10812 6.59771 -0.0763957 -0.986214 0.146787
3.65577 5.05189 -9.45363 -0.13614 -0.0735963 -0.987952
8.6751 -2.50294 -0.147116 0.983001 0.183119 0.0132456
1.61532 -4.0803 9.06061 -0.110344 0.151362 0.9823
8.98928 0.10335 -6.97787 0.969859 -0.00782677 -0.243539
-9.39487 -6.05562 7.56571 -0.943073 -0.036931 0.330529
-7.78737 -8.67751 -0.521639 -0.503883 -0.862805 0.0408611
8.67656 8.57667 -4.29295 0.719932 0.682409 0.126554
-5.45478 0.614586 9.12932 0.0426752 -0.0442775 0.998107
8.85088 3.26439 -0.877872 0.980728 -0.182261 0.070381
0.721542 -1.05663 -8.47786 -0.0718831 0.103355 -0.992044
3.53265 2.55108 -9.09866 -0.159786 -0.148431 -0.975929
-9.42176 7.46986 -5.35057 -0.951065 0.305571 0.0458376
7.55049 -4.00267 9.25611 0.3431 0.132991 0.929836
-4.01954 -2.9812 9.23936 0.140582 0.148392 0.978885
6.55246 9.51083 -6.99859 0.112794 0.974029 -0.196329
-0.426562 8.84788 3.37887 0.0349328 0.982504 -0.182934
-7.72661 6.55157 -9.29351 -0.379366 0.116993 -0.91782
-2.59094 -3.18501 9.04696 0.153138 0.163986 0.974504
-8.46142 -7.10664 -8.73167 -0.634835 -0.23928 -0.734663
-5.42869 9.48562 -3.73198 0.0386487 0.990298 0.13348
8.85892 -8.42663 -4.62627 0.778709 -0.618113 0.107466
-3.49075 -3.82484 -9.28849 0.146943 0.142399 -0.978841
-3.4264 1.04846 -8.89389 0.178237 -0.0814163 -0.980614
-8.63483 -2.06607 -8.11315 -0.79638 0.134338 -0.589689
-5.28066 0.863449 9.13328 0.0626505 -0.0612769 0.996153
0.941035 2.16645 8.65386 -0.0833802 -0.16943 0.982009
-9.49049 6.4987 -3.99507 -0.986214 0.105932 0.127121
1.4737 5.51406 -9.19364 -0.0970614 -0.0341298 -0.994693
-8.56795 8.00909 -1.00737 -0.809643 0.58188 0.0767657
2.3093 3.83892 -9.1123 -0.139652 -0.154182 -0.978123
-1.06938 -3.82423 -8.96574 0.0801927 0.166675 -0.982745
-7.66358 5.49919 9.35976 -0.35762 -0.0312451 0.933344
8.6834 1.88538 -1.61767 0.97958 -0.150557 0.133247
8.42907 -8.35938 -2.07793 0.71439 -0.686506 0.135485
6.98363 6.17981 -9.54513 0.19159 0.053337 -0.980025
-9.1988 4.16867 -2.56669 -0.980085 -0.138183 0.142616
-9.0438 3.91312 1.69824 -0.980667 -0.157801 -0.115715
-9.11728 -5.46509 0.186132 -0.999038 0.0416869 -0.0136399
9.19747 3.44534 -7.48031 0.93112 -0.146042 -0.334196
7.25335 -9.17444 -7.66224 0.266696 -0.889571 -0.37086
-3.01411 -3.36952 -9.14448 0.155016 0.15708 -0.975344
7.86574 6.88276 9.17668 0.425938 0.183361 0.885977
9.01688 -3.01125 2.58608 0.974085 0.164552 -0.155178
6.49135 8.50351 8.83696 0.110079 0.638368 0.761819
-8.43966 3.10873 -8.56625 -0.67366 -0.15499 -0.722607
-1.79973 9.1053 4.23603 0.117931 0.982825 -0.141944
-3.85243 -9.41969 -6.86207 0.133144 -0.975271 -0.176404
6.78583 -9.58873 -5.92591 0.151712 -0.98825 -0.01858
-2.86134 -9.33799 -6.44002 0.140859 -0.984696 -0.102632
-9.61409 -4.8192 5.96989 -0.996054 0.085403 0.0241373
-0.183755 -7.25795 8.90749 0.0141231 -0.324057 0.945932
-9.51022 -6.81052 6.80418 -0.974439 -0.159452 0.158251
-9.14574 5.63502 0.824254 -0.998107 -0.0193119 -0.0583834
-6.46405 9.08499 0.230179 -0.12128 0.992473 -0.0170078
8.55754 -8.83425 5.50618 0.653627 -0.756149 -0.031784
8.61023 8.08931 1.8051 0.798012 0.58989 -0.123314
1.01056 -1.86819 -8.61055 -0.0913961 0.156051 -0.983511
-8.86753 2.42473 7.84316 -0.867031 -0.143683 0.477088
-9.39463 3.28849 4.96115 -0.986467 -0.141571 -0.0827067
-1.17704 -8.91476 7.3863 0.0851176 -0.931042 0.354847
9.08724 6.45187 0.271735 0.992728 0.1187 -0.0200494
4.96154 -9.62287 -5.47152 -0.0755736 -0.996611 0.0324687
-8.83988 0.50025 7.45918 -0.921286 -0.0384915 0.386975
1.96007 -0.51169 8.58996 -0.163903 0.0479822 0.985309
-7.90026 6.94413 9.14653 -0.437829 0.197014 0.877206
6.34925 9.52973 4.19711 0.0800598 0.98964 -0.119178
-6.99259 9.17745 -2.37163 -0.224821 0.964896 0.135759
3.59861 -7.61509 -9.17024 -0.144605 -0.370149 -0.917649
-4.68058 3.31403 9.37178 0.103072 -0.142762 0.984376
-9.21036 -2.6782 4.1348 -0.979707 0.144719 -0.138672
4.77066 9.06475 -0.344795 -0.113183 0.993242 0.0256948
-6.79541 -7.63795 9.29197 -0.163011 -0.356694 0.91989
0.912753 1.62987 8.56544 -0.0852932 -0.143761 0.98593
9.11764 0.11829 5.49298 0.999232 -0.00867396 -0.038207
-7.46176 -8.92281 -1.54018 -0.372241 -0.92201 0.106463
-6.15441 2.53299 9.31471 -0.0555778 -0.135518 0.989215
-0.732303 -2.82465 -8.7584 0.0620055 0.184896 -0.9808
-1.06554 4.89694 9.11542 0.0750471 -0.10019 0.992134
-8.93524 -1.81874 -7.51526 -0.915735 0.120344 -0.383336
-8.76512 0.40227 -2.94573 -0.981752 -0.0343634 0.187038
8.93035 7.61006 2.08071 0.903576 0.407733 -0.131547
9.46967 4.23599 -4.42632 0.986323 -0.120515 0.112439
5.42636 -9.17828 1.34779 -0.0449221 -0.994888 -0.0904475
7.56733 9.35261 -4.84934 0.335456 0.937919 0.0881868
7.21854 -5.24656 -9.48809 0.243948 0.0548421 -0.968236
8.39039 3.6472 8.72079 0.633701 -0.148868 0.759118
0.0155292 7.31912 8.88447 -0.00120001 0.343358 0.939204
-8.91182 -2.15572 -2.78888 -0.97461 0.146741 0.169122
-0.675234 8.53879 8.01244 0.0529379 0.80586 0.589735
5.56377 -7.51195 9.41589 -0.0240874 -0.31589 0.94849
-4.66673 -9.40329 -7.35607 0.0993479 -0.954374 -0.281602
0.671499 8.50248 -1.30212 -0.0660049 0.990191 0.123147
8.56077 -4.39634 8.70912 0.673533 0.12125 0.729144
5.72664 6.42764 -9.63315 -0.00536606 0.0891977 -0.995999
-9.26942 -2.3151 6.36689 -0.987006 0.131127 0.09287
-7.0849 -8.72309 8.47934 -0.234147 -0.731027 0.640917
-4.82569 9.21612 -7.88984 0.0915223 0.89784 -0.430705
-5.83495 4.33401 -9.56755 -0.00742653 -0.112514 -0.993622
6.26077 -9.12338 0.735655 0.080264 -0.995377 -0.0527413
-5.721 6.04353 9.65637 0.00596444 0.0333143 0.999427
3.91217 -9.39346 -7.03385 -0.132381 -0.968019 -0.213108
-2.28 -6.54812 -9.24453 0.130874 -0.12751 -0.983165
-0.254205 -5.02309 9.08865 0.018805 0.0904924 0.99572
8.31155 -0.949519 8.30503 0.706554 0.0732284 0.70386
-2.34899 4.6388 9.22858 0.134471 -0.112796 0.984477
0.896293 -2.79491 8.76427 -0.0749953 0.183476 0.980159
-3.66153 7.32495 -9.28189 0.140978 0.28762 -0.947312
9.29102 -4.84561 -7.72633 0.920351 0.089255 -0.380771
-3.19818 -9.39093 -5.07802 0.141605 -0.987195 0.0734409
6.90188 -8.5935 -8.67259 0.192531 -0.679049 -0.708395
9.0317 -1.82178 3.74709 0.979036 0.122875 -0.162452
9.08338 -6.63913 0.822833 0.985748 -0.157429 -0.0593005
9.50547 4.15781 -6.54847 0.986066 -0.121375 -0.113765
0.58004 0.328321 -8.41706 -0.0604683 -0.0344642 -0.997575
-5.49304 -4.00768 -9.52401 0.0314977 0.125611 -0.991579
8.1471 8.83168 7.48254 0.531208 0.778409 0.33451
-2.17548 -6.80919 9.18928 0.129087 -0.184098 0.974394
-9.62745 -5.05188 6.11035 -0.996715 0.0688358 0.0426647
7.97159 9.18139 6.5429 0.454502 0.883028 0.117004
-2.20894 -8.83334 7.84152 0.137627 -0.864486 0.483449
-5.25212 -9.6228 6.38154 0.0526879 -0.995213 0.0823055
3.10232 -7.56587 -9.11014 -0.149265 -0.367096 -0.918129
-7.52624 -4.55184 9.33604 -0.327702 0.107247 0.938674
1.08785 8.64604 2.04116 -0.0958938 0.981916 -0.163234
-0.565332 8.82828 3.24338 0.0465298 0.981736 -0.184471
-2.02563 2.83199 8.9001 0.141387 -0.171182 0.975042
4.33729 7.9482 9.12798 -0.121569 0.4578 0.880704
-1.01362 6.5347 9.11141 0.0714992 0.133678 0.988442
6.86563 -0.815843 9.04049 0.211317 0.0594278 0.975609
9.21209 3.63989 7.5233 0.928599 -0.14301 0.34242
9.38272 -5.69926 -2.94902 0.990086 0.00936449 0.140152
9.04212 2.47801 -3.26048 0.974853 -0.150017 0.164794
3.62527 -8.90862 -0.753681 -0.175415 -0.982714 0.0591802
6.70687 9.49273 -4.22198 0.142427 0.982582 0.119364
-3.2833 -8.98489 2.06475 0.169691 -0.975851 -0.137548
1.88479 -6.97054 -9.11794 -0.11949 -0.226364 -0.966686
-8.56431 1.41406 -1.20075 -0.985711 -0.127446 0.110147
-3.45704 -8.85631 0.190104 0.18195 -0.983184 -0.015581
-8.61647 -8.63506 -4.2764 -0.697845 -0.704832 0.127377
-1.87914 -3.59667 -9.01375 0.126806 0.166114 -0.97792
-3.88111 -3.09915 -9.23716 0.144417 0.149772 -0.978117
-2.60988 4.82199 9.28443 0.138972 -0.0976037 0.985475
6.25247 -5.28854 -9.63404 0.0626468 0.0493521 -0.996815
-8.98892 2.40109 3.01799 -0.974311 -0.151151 -0.166947
0.227616 1.07287 8.45573 -0.023334 -0.106352 0.994055
-8.16311 -8.07584 -8.46927 -0.548164 -0.519226 -0.655683
9.38858 -6.679 3.41889 0.979594 -0.143359 -0.140865
-9.39109 3.38021 -4.77702 -0.985251 -0.141618 0.0960467
-6.99322 9.06346 -8.03463 -0.209372 0.850611 -0.482312
-2.68298 -8.77375 -1.23318 0.179209 -0.978688 0.100265
9.45438 -7.31871 -6.3504 0.959994 -0.268213 -0.0804619
-8.95133 7.62164 7.84693 -0.82121 0.369926 0.434476
7.72437 -9.29804 -4.9115 0.379432 -0.921363 0.0843872
-9.12373 0.174333 -5.77656 -0.999919 -0.012749 -0.000447643
5.62832 -9.13805 0.683708 -0.0202933 -0.998595 -0.0489442
-6.01377 -6.6929 -9.60002 -0.0298703 -0.134539 -0.990458
8.89426 0.255605 -3.6586 0.984102 -0.0205543 0.176408
5.61543 -8.15513 -9.1267 -0.0190631 -0.510137 -0.859882
5.78885 -9.63922 -6.35668 0.00178277 -0.996947 -0.0780575
4.34613 -4.37147 9.47655 -0.11574 0.114634 0.986642
-1.64351 -1.69692 8.65895 0.136901 0.140527 0.980566
-1.4045 7.35162 8.95007 0.0984031 0.340196 0.935192
4.52106 9.33347 -3.17247 -0.114142 0.982892 0.144547
-3.56403 -9.23282 3.38154 0.149901 -0.977108 -0.150964
9.29982 2.97517 4.48223 0.98241 -0.144758 -0.117969
8.61705 -6.35927 -8.75414 0.678514 -0.0869662 -0.729422
9.62826 5.97064 -4.9977 0.997052 0.0241113 0.0728433
5.14293 -9.11219 -0.655446 -0.0778481 -0.995837 0.0474244
2.42196 0.718837 -8.68264 -0.178876 -0.0634293 -0.981825
9.03929 1.92916 7.27345 0.943638 -0.123276 0.307165
-4.57659 9.37623 -7.41319 0.105135 0.948998 -0.297236
-2.01416 -1.51328 8.68987 0.157576 0.125535 0.979495
-2.33969 -6.81615 -9.21014 0.133841 -0.183718 -0.973824
-7.40232 9.07666 -2.50081 -0.33266 0.932324 0.141807
-3.86039 9.50957 5.79471 0.129924 0.991521 0.00259545
-8.22178 4.739 9.02063 -0.542361 -0.099221 0.834266
7.84016 -9.26432 5.1057 0.412073 -0.908512 -0.069296
-5.33087 9.06496 8.23631 0.0497437 0.840511 0.539506
8.756 2.08089 -1.91114 0.976994 -0.1554 0.146058
5.92932 6.17728 9.64941 0.0187162 0.0515983 0.998493
-3.93643 -9.36369 -3.90021 0.135416 -0.981368 0.136304
2.80829 -9.32366 -4.93972 -0.141026 -0.986169 0.087076
0.722948 -8.72897 2.67119 -0.0621988 -0.98105 -0.183499
-6.51782 -9.34324 2.95815 -0.116263 -0.983046 -0.141785
-6.38957 9.14765 1.25177 -0.103024 0.990992 -0.0855628
4.03345 3.60522 -9.33493 -0.134364 -0.143121 -0.980542
8.53218 0.144287 1.67077 0.988613 -0.0141121 -0.149819
-9.37649 3.0613 5.15075 -0.98762 -0.141546 -0.067616
-8.77151 0.811579 -7.64529 -0.891985 -0.0618411 -0.447815
5.07677 9.6161 -5.1544 -0.0672119 0.995868 0.0610697
-8.59478 -1.60406 -1.24259 -0.98394 0.139346 0.111556
-7.67847 8.82076 -1.50341 -0.445832 0.888836 0.105849
-5.87642 8.74093 -8.66536 -0.0134924 0.720934 -0.692873
7.80108 8.96182 2.85113 0.449139 0.880726 -0.15032
-2.93427 -9.31529 6.69751 0.142535 -0.978105 0.151637
-9.00583 7.21558 -1.49551 -0.948996 0.298132 0.102583
-2.04189 8.66397 1.25882 0.161556 0.980889 -0.108426
-8.8809 3.32228 1.1185 -0.979911 -0.179483 -0.0869494
4.83124 9.07821 -0.546992 -0.107631 0.993374 0.0402854
9.61459 -5.78778 6.60642 0.992891 -0.00166932 0.11902
6.87755 -9.06015 -1.12689 0.211834 -0.974052 0.0796779
2.4115 8.01138 -8.76471 -0.144548 0.538339 -0.830239
-6.55146 1.04499 9.11142 -0.137073 -0.0735187 0.987829
8.83997 -2.13652 2.3849 0.975075 0.151294 -0.16229
-3.61067 0.752421 -8.90593 0.175846 -0.0591596 -0.982639
-7.58452 4.48028 -9.30672 -0.34485 -0.111661 -0.931993
9.18327 -5.99647 -1.3543 0.99532 -0.0334431 0.0906604
-4.22348 -1.99809 -9.12816 0.140833 0.126159 -0.981962
9.23863 4.75939 -2.32512 0.985594 -0.104259 0.133168
-4.80341 4.67834 9.55671 0.0881642 -0.095793 0.991489
8.03155 9.18795 6.13543 0.470057 0.881238 0.0496504
0.47935 0.627897 -8.42646 -0.0498201 -0.0649347 -0.996645
-8.5367 1.70542 -0.0721792 -0.988367 -0.151925 0.00704358
9.11499 -3.92956 -7.85513 0.888919 0.137821 -0.43684
7.81 -4.24039 -9.18229 0.41574 0.125273 -0.900815
-6.09167 4.07139 -9.53006 -0.0416168 -0.123466 -0.991476
-0.249321 -7.72193 8.7051 0.0196714 -0.481511 0.876219
-0.930311 8.7046 2.45753 0.0801946 0.980742 -0.178085
9.06557 -4.81779 0.00725285 0.993992 0.109455 -0.000542625
-8.80466 -8.5667 5.17483 -0.748388 -0.660045 -0.0652434
2.76423 9.22382 4.13976 -0.145776 0.979699 -0.137621
5.81394 3.54807 -9.46737 0.00506357 -0.136794 -0.990587
9.1398 0.693552 -5.82989 0.998735 -0.0495944 -0.00830241
-8.9806 -1.1356 -3.87967 -0.982856 0.0841642 0.164046
-5.45355 -9.33403 2.64498 0.0386186 -0.989773 -0.137327
1.84945 -7.78261 -8.81159 -0.123569 -0.473449 -0.87211
6.07487 -5.36913 9.64662 0.0375912 0.0419234 0.998413
2.19676 -1.35271 -8.70052 -0.166419 0.113246 -0.979531
1.48492 2.73359 8.81082 -0.115752 -0.177029 0.977375
5.4842 9.12166 0.365044 -0.0392194 0.998876 -0.0266117
-7.08695 -9.44822 -6.85331 -0.217702 -0.961108 -0.169932
5.93563 9.29983 -7.81677 0.0208664 0.915416 -0.401969
5.971 -9.343 2.68266 0.0272007 -0.9901 -0.137705
2.10518 -3.25409 8.98555 -0.139351 0.169512 0.975627
9.02637 -7.96265 3.72668 0.866647 -0.477532 -0.144524
4.28317 9.1194 1.86049 -0.138865 0.982987 -0.120221
8.42874 0.297366 0.76233 0.99645 -0.0309919 -0.0782735
6.71863 -3.06642 9.33129 0.154637 0.14305 0.97756
-6.50302 9.2067 -1.93834 -0.121208 0.985431 0.11931
8.84438 3.04818 -1.26563 0.978558 -0.180626 0.0989847
-8.53869 -1.21158 -1.19236 -0.987377 0.112807 0.111177
6.84222 9.49595 -6.85747 0.166049 0.971528 -0.168998
8.95864 8.02713 -3.54635 0.85022 0.504936 0.14888
-0.826169 -8.50815 -1.25489 0.0803415 -0.989675 0.118698
-9.65411 -5.9426 -5.46737 -0.999264 -0.0203542 0.0325283
8.75106 0.764836 -2.77451 0.980723 -0.0649053 0.18431
9.44238 6.44994 3.59962 0.985522 0.0997088 -0.13713
-0.47227 8.46104 -1.03981 0.0479968 0.993529 0.102937
8.91655 -5.54486 8.45948 0.786087 0.0273992 0.617508
-0.921958 -8.48269 -0.938885 0.0906428 -0.991605 0.0922175
-8.06039 -9.18166 -5.67623 -0.478441 -0.87804 0.011861
-0.429526 -6.28001 9.10883 0.0313629 -0.0844544 0.995934
-7.63791 -7.80884 8.96381 -0.374046 -0.422797 0.825429
-4.5626 5.11334 9.5693 0.101716 -0.0654585 0.992658
5.68335 -3.32747 9.43616 -0.0110574 0.139526 0.990157
-5.73025 9.34378 2.66995 0.00559972 0.990498 -0.137416
-9.35158 -6.60674 -3.09338 -0.980943 -0.132098 0.142485
-8.92038 3.00563 1.9529 -0.975489 -0.172725 -0.136336
-3.25038 0.0900035 8.81644 0.185775 -0.00752927 0.982564
5.34579 4.94744 -9.61692 -0.0445164 -0.0767196 -0.996058
-4.96273 -9.29925 -7.73256 0.0805035 -0.920948 -0.38128
9.02443 -6.99994 1.03905 0.966844 -0.244217 -0.0746355
-0.274624 -9.10872 -5.27592 0.020156 -0.997745 0.0640142
9.47102 -3.58006 5.89009 0.990558 0.136287 0.0148618
3.45087 8.69288 -8.3771 -0.152353 0.756514 -0.635984
-5.77398 9.40262 -3.08694 -6.13109e-05 0.990082 0.140489
-7.14512 9.36594 -7.1725 -0.234144 0.942051 -0.24024
-8.53887 0.448952 -1.65609 -0.988015 -0.0434853 0.148106
-0.988445 3.28091 -8.86232 0.0782576 -0.181184 -0.980331
-8.31934 8.9662 -4.83995 -0.575039 0.812893 0.0923879
-9.2689 -7.02363 7.57668 -0.915459 -0.21107 0.342613
-4.99866 1.02018 -9.12186 0.0910874 -0.0719227 -0.993242
-9.27354 -3.38468 -3.83206 -0.978514 0.148357 0.143179
-8.30293 -7.61165 8.65387 -0.589143 -0.373214 0.716674
-7.04219 3.46029 9.32702 -0.220738 -0.142489 0.964869
8.99224 -3.68621 1.57799 0.979652 0.166842 -0.111565
7.72484 -8.809 -1.60095 0.459741 -0.88105 0.111307
5.94072 9.15402 -0.96675 0.0251254 0.997394 0.067628
8.49769 0.0178464 -1.43842 0.99086 -0.00178418 0.13488
9.30263 5.11628 2.55711 0.987905 -0.0730869 -0.136756
0.327356 1.98631 -8.58696 -0.0309017 -0.165843 -0.985668
-3.08544 -8.80251 -0.644061 0.1855 -0.981185 0.0535271
-9.02974 -0.83667 4.33457 -0.98777 0.0619618 -0.143075
-9.50457 -7.09968 5.06389 -0.973486 -0.217781 -0.0699724
-6.78482 -3.38541 9.36707 -0.165027 0.141809 0.976041
9.01321 -3.44318 2.06986 0.976492 0.167249 -0.135983
2.86232 -8.10512 8.7841 -0.152665 -0.55643 0.816749
7.65937 -4.17924 -9.2389 0.371313 0.126902 -0.919795
-9.40489 -4.72328 3.51391 -0.985174 0.0989561 -0.140144
7.64323 -9.36837 5.52696 0.351794 -0.935651 -0.0282531
3.34268 2.72877 9.09492 -0.160798 -0.153345 0.975002
1.79767 -9.09758 -7.01101 -0.116037 -0.964346 -0.237851
-9.55765 4.32802 -5.36187 -0.992606 -0.113129 0.0439965
1.77522 -8.90579 -7.57038 -0.118773 -0.907735 -0.402381
7.68427 9.19306 -7.15592 0.3756 0.894324 -0.243123
-7.90083 -8.59769 -0.263588 -0.549925 -0.83495 0.0209793
-9.42154 -4.09886 -7.01921 -0.970046 0.125868 -0.207767
-0.61299 -2.21751 -8.63951 0.0556607 0.173607 -0.983241
6.65066 -7.05942 9.48581 0.130689 -0.210058 0.968915
-1.2846 -3.32749 8.89752 0.0977286 0.177864 0.97919
