# x y Mean_Curvature nx ny
-1.55587 -5.53069 9.20238 0.101205 0.0319443 0.994353
4.67552 -9.55459 4.78282 -0.0960302 -0.991343 -0.089544
-9.02782 -2.69782 2.96967 -0.973975 0.157438 -0.163055
9.13528 0.642862 -5.5919 0.998617 -0.0461578 0.0251733
-0.661626 8.73008 2.69698 0.0570476 0.981228 -0.184218
-8.44646 -0.26241 -0.973991 -0.994844 0.027049 0.0977427
4.55744 5.61802 -9.59044 -0.101264 -0.0175988 -0.994704
-6.29188 9.64068 5.52934 -0.068294 0.997314 -0.0264825
6.43001 9.113 0.84158 0.112779 0.9918 -0.0601086
-4.62301 6.88125 9.50965 0.0997643 0.174036 0.979673
-8.16813 -3.9733 8.94415 -0.541692 0.138488 0.82909
9.56979 5.27943 -4.47376 0.993023 -0.0513613 0.106149
9.42253 -3.32995 -5.27467 0.988601 0.140156 0.0550033
-0.856298 -4.37446 -9.03671 0.0631558 0.140509 -0.988063
9.27475 -4.99608 2.42398 0.987307 0.0845141 -0.134473
-1.30554 8.66158 -1.99514 0.112166 0.980874 0.159078
-4.89845 9.4473 3.69967 0.0854697 0.987042 -0.135803
-8.57301 -1.9294 -0.121527 -0.986446 0.163676 0.0116004
9.33566 -4.50084 3.20338 0.982778 0.115111 -0.144559
-3.76133 -4.77154 -9.44419 0.134926 0.0942613 -0.986362
6.22826 -4.74748 9.59695 0.0599167 0.0903308 0.994108
0.0993727 -8.39428 -0.0600857 -0.0106235 -0.999923 0.00642472
2.71568 1.3295 8.7899 -0.17858 -0.106312 0.978165
-9.61666 -6.32601 6.39385 -0.993697 -0.0738815 0.0843123
5.98138 -9.2573 -2.03575 0.029914 -0.992126 0.121616
-7.63828 -8.78751 0.976662 -0.442679 -0.893681 -0.0732814
9.22822 6.70262 2.32626 0.978309 0.158929 -0.132864
1.26565 -8.4919 0.573453 -0.120862 -0.991034 -0.0569583
-8.38492 2.62421 -8.51431 -0.673165 -0.150696 -0.723975
-9.41244 -5.4579 -7.51234 -0.948 0.0352605 -0.31631
4.18145 -0.846921 -9.0075 -0.151817 0.0632807 -0.986381
-0.0649609 8.65347 -2.39038 0.00592261 0.983539 0.180601
9.41948 -3.21126 -5.88225 0.990013 0.140268 -0.0141464
9.08123 -0.123101 6.48294 0.992073 0.00911896 0.125331
-2.01523 -8.6129 0.743962 0.164975 -0.983937 -0.0682019
-9.6262 5.83742 6.49935 -0.994872 0.0075466 0.100856
-0.978731 2.7731 -8.76678 0.0813697 -0.182609 -0.979813
3.12342 -8.86527 1.33388 -0.179569 -0.978377 -0.10263
-2.34152 -9.19905 4.40606 0.135795 -0.982471 -0.127714
9.07592 -1.75671 -4.07333 0.981653 0.117196 0.150406
-5.57323 2.57427 9.32812 0.0250488 -0.135978 0.990395
3.69112 -9.47637 -5.34321 -0.134559 -0.989777 0.0472751
9.45793 -4.40558 -4.16044 0.985744 0.113928 0.123814
0.645614 -7.61279 8.77726 -0.0497111 -0.438451 0.897379
-9.33324 6.61511 2.97495 -0.980608 0.134753 -0.142304
2.03574 -2.17094 8.78933 -0.150253 0.15711 0.976084
-8.18383 7.84039 -8.61847 -0.551745 0.44212 -0.707183
-3.09704 -8.7877 -0.130393 0.187256 -0.982249 0.0110634
-8.71851 1.67753 -7.90177 -0.844875 -0.116247 -0.522181
-2.61615 -8.87743 -2.12557 0.167324 -0.974747 0.147886
-2.30563 8.31348 -8.51525 0.143042 0.658684 -0.738698
-7.43725 8.24247 -8.78318 -0.322983 0.563574 -0.760306
9.13693 -0.762917 5.46122 0.997647 0.0544014 -0.0417163
3.23206 9.10359 2.89795 -0.159867 0.974707 -0.156168
7.21585 8.92688 -0.40635 0.310394 0.950104 0.0309449
-9.62785 6.45512 -5.5457 -0.995289 0.0936988 0.0249023
7.92182 9.23418 -6.27772 0.435986 0.89712 -0.0713558
7.18552 7.75843 -9.15252 0.251279 0.398257 -0.882185
9.28832 -2.25799 -5.81235 0.991685 0.128577 -0.00527584
-9.29456 2.48137 -6.33701 -0.98706 -0.134978 -0.0865625
3.24883 7.32974 9.21738 -0.146761 0.296416 0.943715
9.05946 -0.857979 4.54024 0.989606 0.0626797 -0.129426
-9.20762 7.95057 -6.41188 -0.889967 0.446293 -0.0937063
3.58993 6.30491 -9.45388 -0.136834 0.0754432 -0.987717
-7.04373 9.54113 -5.97601 -0.203864 0.978673 -0.0252775
-3.87122 -8.92894 0.0053531 0.168994 -0.985617 -0.000424563
-1.55256 -8.63559 -1.62002 0.132338 -0.981673 0.137132
9.60662 -4.83383 -5.32198 0.995306 0.0846739 0.0468566
2.60545 -1.18851 -8.75506 -0.178543 0.0979384 -0.979046
9.5483 4.52154 -6.53881 0.988412 -0.104307 -0.110277
1.24553 0.337302 8.4786 -0.120154 -0.0340105 0.992173
-9.55675 4.64381 4.84229 -0.991519 -0.0977617 -0.0856305
1.29316 -9.18096 5.85906 -0.0871762 -0.996116 0.0124158
-9.56651 4.3882 6.1138 -0.992931 -0.110193 0.0441173
0.394182 9.09279 -5.03167 -0.0290183 0.995565 0.0894897
9.28579 -4.37488 -7.6057 0.928444 0.117383 -0.352438
-9.37503 7.08592 3.86415 -0.964938 0.22561 -0.134147
-2.38456 8.85353 2.22337 0.161121 0.974804 -0.154265
-8.81832 7.49497 0.319733 -0.916059 0.400274 -0.0248427
6.10816 9.54226 -7.01579 0.0431798 0.979216 -0.198169
-9.6538 -5.98293 6.04646 -0.999107 -0.0254676 0.033727
8.77374 -7.36367 -8.29527 0.75549 -0.30349 -0.580628
3.56378 -9.42071 6.59526 -0.138356 -0.982318 0.126134
9.18141 -1.29485 5.8298 0.996152 0.0872629 0.00810764
-6.67022 -6.91153 -9.51272 -0.133435 -0.178872 -0.974782
-7.07256 -9.32714 -7.37254 -0.21975 -0.931905 -0.288553
-7.04994 -2.45221 -9.17513 -0.237803 0.138059 -0.961452
-2.82406 5.8518 -9.36503 0.139265 0.0103579 -0.990201
9.55104 5.98451 -4.21362 0.992673 0.0266581 0.117855
-9.40201 4.78098 -3.45374 -0.985449 -0.0953314 0.140717
-5.99271 3.42466 -9.44717 -0.0289656 -0.138655 -0.989917
-9.58477 -4.8962 4.90451 -0.993439 0.0811541 -0.0805844
-8.47261 -2.68032 -8.44098 -0.7051 0.151692 -0.692693
-1.19081 2.06939 8.66119 0.103285 -0.163381 0.981142
-8.41265 8.1803 0.784883 -0.752185 0.656092 -0.0613263
3.5472 9.24075 3.44974 -0.149535 0.977281 -0.150205
6.95606 -7.18637 9.40492 0.192138 -0.24145 0.951202
-3.99091 3.81362 -9.35905 0.134228 -0.138461 -0.98123
1.8129 -8.88781 -2.93039 -0.130996 -0.975924 0.174389
9.16909 -1.65987 -4.88033 0.989243 0.107925 0.0987473
-9.50439 6.65999 6.96294 -0.972999 0.131841 0.189451
4.44194 8.10948 -9.05243 -0.117047 0.509466 -0.852493
-7.96515 -0.424798 8.55929 -0.574105 0.0337121 0.818088
-5.30288 -8.34563 -8.9894 0.052736 -0.578201 -0.814188
7.77468 8.67274 0.0757315 0.501906 0.864901 -0.0060097
-8.8021 -3.043 8.12846 -0.815247 0.153701 0.558345
-3.14402 7.15472 -9.25177 0.145836 0.252731 -0.956483
5.89115 -5.00843 9.63056 0.0140913 0.072009 0.997304
7.81618 -0.160034 8.64907 0.51752 0.012714 0.855577
-8.75377 -4.66843 -8.55791 -0.738795 0.10501 -0.665699
-1.81452 9.07793 4.04092 0.120051 0.981166 -0.151332
8.56617 1.58394 -0.994311 0.985786 -0.140305 0.0924192
-5.79088 -9.17229 8.07862 -0.00218463 -0.874866 0.48436
-9.08232 7.3644 -2.4502 -0.936024 0.32272 0.140398
8.59366 1.86658 0.814398 0.98464 -0.157555 -0.0752386
-3.11773 -5.23206 9.38982 0.141286 0.0598333 0.988159
9.12037 -0.617699 5.28333 0.997028 0.0446379 -0.0627971
-4.23375 -4.8223 -9.50991 0.118801 0.08851 -0.988965
0.475404 8.60603 -2.06533 -0.0442142 0.984685 0.168646
3.76951 3.79909 -9.32585 -0.141222 -0.140664 -0.979934
-9.16101 -1.18927 -5.35442 -0.995229 0.0815146 0.0536205
1.99506 -8.88744 2.78501 -0.140743 -0.975133 -0.171196
-7.31183 -3.31064 9.23253 -0.290439 0.146162 0.945665
-3.07874 -2.8618 -9.07251 0.161028 0.157767 -0.974258
-7.56736 3.72883 -9.2092 -0.353285 -0.141331 -0.924778
-8.90481 3.71281 0.294934 -0.984364 -0.174559 -0.0235829
-3.84112 -7.862 9.09772 0.140637 -0.44122 0.88631
8.50994 -0.160233 1.51749 0.990002 0.015885 -0.140154
-2.44585 2.75153 -8.95051 0.155616 -0.164895 -0.973958
9.42478 -3.31557 5.35764 0.98903 0.140071 -0.0468989
9.2915 5.63684 2.29113 0.991416 -0.0176965 -0.129543
3.83853 -8.08787 8.97232 -0.142351 -0.517342 0.843856
-8.89512 -1.91492 2.89303 -0.975485 0.136055 -0.172966
-9.21386 -5.98766 -1.65984 -0.993847 -0.0315491 0.106176
-7.93634 8.79414 -7.83207 -0.467632 0.768968 -0.435899
-9.25266 2.15546 6.32202 -0.988279 -0.126334 0.0856965
7.25313 9.09977 -2.32111 0.293798 0.946097 0.136318
-0.662272 -9.01749 4.31824 0.0497561 -0.988203 -0.144844
3.55298 -0.267169 -8.87541 -0.179445 0.021672 -0.983529
6.93909 -1.16605 9.04952 0.22705 0.0823287 0.970397
7.18455 -9.51184 5.71271 0.234921 -0.971988 -0.00713355
8.79806 8.56754 5.11068 0.746834 0.661209 -0.0710131
-0.482094 1.63566 8.53734 0.0466941 -0.146733 0.988073
0.56727 8.70593 7.74146 -0.0442139 0.872764 0.486135
6.5258 -1.00311 9.11185 0.131852 0.0708109 0.988737
-3.28037 8.97697 -2.01176 0.170373 0.97601 0.135562
8.96666 6.33856 8.36118 0.806966 0.0829476 0.584744
-9.04827 -0.839812 -4.46498 -0.988963 0.0617031 0.134701
-8.68528 1.74631 -1.77772 -0.979434 -0.141655 0.143676
-9.4378 4.10352 -6.94289 -0.973551 -0.125264 -0.191071
-9.22747 -5.40133 1.83423 -0.992375 0.046627 -0.114099
-5.45236 9.38482 -3.00594 0.0378528 0.989335 0.140652
-8.77512 -7.44083 8.25125 -0.757468 -0.324057 0.56677
-4.59129 1.21392 -9.0927 0.123964 -0.0852189 -0.988621
-9.63611 6.34051 6.04176 -0.996577 0.0756734 0.0332729
1.94874 -2.8067 8.88462 -0.138551 0.171985 0.975307
9.61118 5.14548 6.44389 0.9938 -0.0617945 0.0924308
1.21299 -8.58527 -1.56003 -0.109771 -0.984482 0.136912
-8.66853 -8.27195 2.90235 -0.771228 -0.617689 -0.153842
6.52378 -0.674003 -9.09216 0.132838 0.0489072 -0.98993
-9.07244 0.0364101 -6.54512 -0.990336 -0.00270496 -0.138663
2.77685 5.13414 9.33473 -0.139915 -0.0704109 0.987657
-9.54243 -4.39152 -6.45998 -0.98906 0.110772 -0.0974116
-9.13415 5.02973 -1.1446 -0.992967 -0.087695 0.0795339
-9.31606 -3.49095 -4.01856 -0.980014 0.145275 0.135898
-7.2732 0.547127 -8.91297 -0.326938 -0.0415227 -0.944133
0.839195 4.7942 9.08903 -0.0606534 -0.109901 0.99209
3.51105 9.12264 -7.69508 -0.146849 0.906196 -0.396539
9.07854 4.53269 -1.13436 0.988418 -0.128565 0.0806296
3.33333 9.36596 -4.60028 -0.143058 0.98379 0.108131
3.11162 -0.336678 8.79462 -0.186709 0.0283753 0.982005
-8.50489 -7.77008 8.36934 -0.665281 -0.421425 0.616281
-6.08827 9.5803 -6.80906 -0.0400636 0.986886 -0.156367
9.07937 2.01287 -3.88886 0.979305 -0.129472 0.155561
2.15928 -8.54693 8.24515 -0.138197 -0.757759 0.637732
7.2616 -1.90306 -9.03973 0.304252 0.122134 -0.94473
3.86742 -2.74675 9.18132 -0.14851 0.148021 0.97777
0.579267 9.13477 5.79394 -0.041721 0.999125 0.00299038
4.14419 8.99798 -0.78663 -0.154108 0.986278 0.0592219
2.76785 -9.20682 7.10831 -0.143787 -0.958204 0.247328
-9.47534 -4.23338 6.82647 -0.97891 0.119408 0.165759
9.08451 4.95773 -0.344258 0.994995 -0.0966275 0.0254574
8.31707 8.56838 2.59053 0.648055 0.746688 -0.149937
-7.74245 0.156451 8.692 -0.48956 -0.0123818 0.871882
-9.01606 2.76721 2.83125 -0.973822 -0.160025 -0.161442
1.71528 2.22912 -8.75203 -0.134555 -0.163201 -0.977374
8.71166 -5.52296 -8.69087 0.710639 0.0299608 -0.702919
7.55498 1.28787 8.85558 0.408049 -0.092791 0.908232
-8.37417 8.77663 7.18948 -0.604933 0.752945 0.259093
8.60988 -1.42901 1.55122 0.983013 0.12514 -0.13426
-7.48062 -8.24727 -8.76074 -0.335081 -0.566294 -0.753015
-7.74686 -8.88512 -2.21666 -0.450037 -0.882413 0.137166
9.44178 5.18946 -3.50238 0.988415 -0.0623215 0.138389
-3.11723 -9.40645 5.85842 0.140497 -0.990019 0.0110435
-3.41788 7.59336 9.15022 0.147352 0.367801 0.918156
-2.47065 2.81366 8.965 0.155376 -0.165169 0.973949
9.12101 4.03566 -2.15351 0.979945 -0.148241 0.133161
-4.02069 9.23373 2.94299 0.140911 0.978863 -0.14823
5.6893 9.40452 3.10347 -0.0104888 0.990024 -0.140506
-2.1579 1.49089 -8.71061 0.163472 -0.122528 -0.978909
-0.285268 -5.62286 -9.12397 0.0208198 0.0211871 -0.999559
-7.96691 6.96264 9.10796 -0.459518 0.201806 0.864938
-1.47483 8.7345 7.83128 0.105156 0.858627 0.501699
-3.25523 9.20026 3.48078 0.153073 0.976339 -0.152742
7.03439 -0.193751 8.97566 0.25882 0.0146977 0.965814
9.48616 4.90704 -7.12662 0.970957 -0.0820432 -0.224746
-7.43284 0.74385 -8.86329 -0.375862 -0.0562668 -0.924966
-0.380082 0.458191 8.41236 0.0399788 -0.0480995 0.998042
6.78342 1.21519 -9.08685 0.188133 -0.0846621 -0.978488
6.85382 5.11482 -9.55616 0.166022 -0.0651386 -0.983968
-7.6628 -1.16345 -8.79193 -0.447878 0.0856674 -0.889981
-4.24789 -6.68355 9.49918 0.118157 -0.137848 0.98338
2.72269 -9.26562 -4.50518 -0.142513 -0.982661 0.118604
-9.09428 0.984942 -4.75509 -0.991152 -0.0703637 0.112549
4.42786 -1.67386 -9.11739 -0.131885 0.110887 -0.985043
-9.34782 3.78218 3.94179 -0.980785 -0.139709 -0.136172
7.62552 8.87502 -1.73221 0.421916 0.899034 0.117153
2.41378 -9.14939 7.12808 -0.137733 -0.956165 0.258414
9.16525 -5.4934 -8.08168 0.873325 0.0326027 -0.486045
-7.05709 -9.00191 -0.936799 -0.260659 -0.96302 0.0681884
-9.16277 -1.23359 -6.19411 -0.994213 0.0841127 -0.0668291
4.92512 -9.14304 -1.35913 -0.0964068 -0.991054 0.0922889
-6.83016 -9.24312 -2.59317 -0.183787 -0.973029 0.139415
8.9345 -7.76039 -2.56635 0.88399 -0.444096 0.146081
7.41384 9.40088 -6.59152 0.29382 0.948024 -0.122149
-5.97728 1.70721 9.21929 -0.0298607 -0.108343 0.993665
8.67773 -1.05857 -2.24355 0.980978 0.091847 0.171016
-5.67293 -3.48507 -9.45812 0.0121852 0.13777 -0.990389
8.49809 -8.72352 4.1519 0.657158 -0.741945 -0.132897
-9.40282 -5.61594 -3.0993 -0.989885 0.0192626 0.140557
-6.79709 -7.11588 -9.45119 -0.158926 -0.22373 -0.961607
1.17402 5.61734 -9.16978 -0.0803342 -0.0213967 -0.996538
6.13136 9.12408 -0.560135 0.0572125 0.99754 0.0405107
-9.27531 7.08737 -3.18617 -0.960977 0.23545 0.145212
9.38755 -7.58957 6.02518 0.940958 -0.336938 0.0327298
-0.955177 3.30968 -8.86503 0.0756892 -0.181033 -0.98056
2.46462 9.3111 -6.03196 -0.133903 0.990315 -0.0366819
0.810512 -5.9297 -9.14448 -0.0574816 -0.0235264 -0.998069
-8.75186 2.62392 -1.12111 -0.979349 -0.179507 0.093018
2.18717 -9.16125 6.95234 -0.130309 -0.967289 0.217652
9.05372 3.91663 1.77623 0.980377 -0.156902 -0.119344
8.80797 -3.1166 0.63608 0.981257 0.185348 -0.0527365
2.42115 -4.14458 9.17439 -0.139778 0.140716 0.980133
0.567478 -8.7977 3.08088 -0.047423 -0.981415 -0.185946
-8.20729 8.44098 -1.28026 -0.654478 0.750077 0.0950955
4.18217 -8.38248 -8.82534 -0.13125 -0.613268 -0.778894
-3.25862 -8.7866 8.2087 0.153609 -0.799971 0.580043
-3.28555 2.89674 9.11216 0.159413 -0.155538 0.974882
4.58177 -7.36223 9.39238 -0.104541 -0.284072 0.953087
7.88708 8.78398 -7.90031 0.452882 0.765585 -0.456921
-6.48235 9.31848 2.75684 -0.111141 0.983893 -0.140006
-8.50841 1.25012 0.836229 -0.98965 -0.118272 -0.0812647
-1.1662 -9.16655 5.52306 0.0799423 -0.996236 -0.0335002
7.03707 5.9706 -9.54265 0.20243 0.0245605 -0.978989
0.512067 -7.5374 8.8062 -0.0395634 -0.413447 0.909668
-1.4945 -9.08055 -4.30231 0.102604 -0.984709 0.140787
-7.34973 9.46759 -5.90116 -0.274241 0.96153 -0.0158646
-6.90531 -3.71133 9.39205 -0.187018 0.137005 0.972756
-5.06239 -9.30823 -2.62691 0.0776183 -0.987363 0.138162
-8.82753 3.28991 -0.306373 -0.982442 -0.184828 0.0254165
-7.82326 8.64623 -0.238559 -0.519894 0.854021 0.0189287
-4.99624 -9.10388 0.739118 0.092191 -0.994307 -0.0534182
2.89283 8.74803 0.0459636 -0.187723 0.982214 -0.00398226
9.08452 -2.51576 -3.47934 0.975705 0.148319 0.161247
-6.42647 -3.97056 9.49463 -0.0937057 0.127679 0.987379
8.43919 -8.91604 -6.2557 0.611992 -0.787809 -0.0694537
4.2175 2.14813 9.14701 -0.13976 -0.131503 0.981414
9.40862 -7.05039 4.05211 0.96816 -0.215257 -0.127789
7.58399 9.3323 -6.67243 0.34005 0.930166 -0.138407
-3.6497 9.48142 -5.77172 0.134948 0.990853 0.00022003
-9.10164 -2.94388 3.17513 -0.974593 0.157064 -0.159684
7.56762 -4.60205 9.327 0.338453 0.104516 0.935161
3.66272 -4.72237 9.42577 -0.137423 0.098141 0.985638
1.33426 4.76104 9.12358 -0.0915062 -0.110373 0.989669
-9.19228 3.11285 -3.57245 -0.97641 -0.152795 0.152567
4.4642 -8.39286 -8.86213 -0.117117 -0.609534 -0.784061
-6.98163 -6.89682 9.46292 -0.195071 -0.177981 0.964505
-1.20556 -5.17178 -9.15066 0.0828201 0.0733997 -0.993858
-9.52033 -4.06879 -5.23759 -0.990697 0.123972 0.0561261
-4.49844 9.55949 -6.40225 0.105173 0.990598 -0.0874906
8.93353 -0.0172586 7.17442 0.954222 0.00132218 0.299096
3.54005 9.0223 2.01584 -0.165913 0.977139 -0.132939
2.94359 -9.23022 3.99573 -0.148454 -0.978689 -0.141874
2.08027 8.73099 -7.97749 -0.134132 0.832562 -0.537447
0.987115 6.68013 -9.08745 -0.0702057 0.165775 -0.983661
-0.599115 -8.82419 -7.50628 0.0459742 -0.914501 -0.401963
5.93501 -9.65587 -5.52124 0.0193922 -0.999442 0.0271819
0.0868111 -7.84397 8.63118 -0.00691272 -0.528437 0.848944
8.97601 8.1192 7.13091 0.823042 0.513622 0.242474
-8.9316 0.255472 -3.87141 -0.985454 -0.0201923 0.168738
-1.7857 -9.22201 5.40281 0.112042 -0.992611 -0.0465899
3.97033 -5.55704 9.52107 -0.126756 0.0247661 0.991625
-4.28339 9.08884 -1.59734 0.141053 0.984089 0.108044
-8.83415 3.27837 0.550439 -0.981873 -0.184072 -0.045198
-8.61627 1.80195 -1.17183 -0.98297 -0.151195 0.104448
-1.57101 -9.04748 -4.02765 0.10847 -0.982072 0.15417
4.39224 -9.57348 5.65552 -0.109788 -0.993862 -0.0135757
7.07356 -9.51768 -5.17339 0.211493 -0.975484 0.06084
-0.886607 -8.77046 -2.83189 0.0739882 -0.980175 0.183802
-6.32353 9.57122 6.78033 -0.0743531 0.985665 0.151447
8.32467 8.93228 -4.59832 0.581681 0.806096 0.108887
-6.5504 8.87619 -8.4446 -0.120795 0.777077 -0.617706
-7.61322 -0.32736 -8.76365 -0.441458 0.0256094 -0.896917
3.82785 9.50492 -5.85361 -0.130822 0.991356 -0.00997526
8.31259 -8.94664 6.71762 0.572913 -0.805274 0.15266
0.949605 -5.28695 9.13922 -0.0668593 0.0617676 0.995849
-1.00782 5.532 9.1549 0.0702675 -0.0325861 0.996996
4.21945 9.21613 -7.72743 -0.125634 0.911845 -0.39084
9.26943 2.57307 4.72659 0.984736 -0.138848 -0.10496
-5.13051 9.11013 -0.632359 0.0791751 0.995806 0.045839
-5.56823 9.57496 4.42036 0.023062 0.993832 -0.108468
-3.30851 -8.46 8.59005 0.15414 -0.673214 0.723204
7.28055 -8.89831 -0.0281904 0.331269 -0.943534 0.00217327
9.19197 -1.86547 6.54985 0.984478 0.116589 0.131186
5.45844 8.0337 -9.19003 -0.0362484 0.470475 -0.881669
0.99929 1.61023 -8.5704 -0.0926172 -0.141883 -0.985541
-9.52269 -5.92343 7.13343 -0.974542 -0.0185378 0.223439
-5.93609 -8.92318 8.45339 -0.0215654 -0.788211 0.615027
3.34352 -3.49105 9.21566 -0.152149 0.151632 0.976657
0.366308 -9.07511 6.56135 -0.0270481 -0.989523 0.141819
-5.42857 -0.36535 9.11929 0.0460962 0.0266559 0.998581
5.67014 9.47712 3.62298 -0.0124133 0.9907 -0.135496
-4.42257 9.01833 0.261052 0.139334 0.990046 -0.0198625
-9.12634 -0.330811 5.71157 -0.99967 0.0240989 -0.00890797
6.13436 -1.42452 9.18363 0.0559334 0.0946228 0.993941
1.96014 2.41084 8.8176 -0.144008 -0.165289 0.975675
1.41033 7.17646 9.00892 -0.0977287 0.288248 0.952555
6.06082 -9.44149 -3.40077 0.038701 -0.989533 0.139023
8.92889 7.66657 -2.24522 0.896126 0.421987 0.137423
8.03558 -4.75397 9.13365 0.478725 0.0973147 0.872555
-9.27275 -6.38152 2.35054 -0.986644 -0.0953113 -0.132096
-5.14994 -9.12006 -0.795072 0.0768162 -0.995418 0.0569353
-8.6546 8.65326 6.73921 -0.698462 0.697965 0.158101
9.61938 -5.20196 -6.3894 0.994866 0.0570086 -0.0836192
6.15644 -6.56225 -9.61055 0.0492057 -0.111707 -0.992522
-5.75257 3.77977 -9.49892 0.00254571 -0.132041 -0.991241
-4.86606 9.12352 -1.2061 0.102279 0.991228 0.0837042
-9.45327 3.65061 -5.05665 -0.987968 -0.136228 0.0732254
9.12145 5.60476 -0.153765 0.999657 -0.0236494 0.0112563
8.75612 -8.61986 -5.17061 0.730453 -0.679798 0.0656736
-6.81908 5.12901 -9.56283 -0.159163 -0.0638886 -0.985183
-8.92457 -3.4875 1.26641 -0.979941 0.175043 -0.095265
-8.9781 3.41306 -1.84822 -0.977119 -0.170389 0.1273
-2.13865 -5.65283 -9.27219 0.12501 0.0158413 -0.992029
5.85637 4.58458 9.59417 0.00996869 -0.0997208 0.994966
-8.66873 4.3634 8.5977 -0.714938 -0.12302 0.68828
9.07472 6.61981 -0.599186 0.987086 0.154075 0.0438441
-9.15406 -2.01311 -4.39669 -0.983401 0.125484 0.13106
9.46192 4.91777 -3.79477 0.987528 -0.0835626 0.133438
-8.62428 2.2301 -0.0327048 -0.984406 -0.175883 0.00303159
-8.77533 -0.898859 2.85286 -0.980113 0.0747677 -0.183817
-6.4845 3.62155 9.44182 -0.105627 -0.136847 0.984945
1.56088 -9.12347 4.57014 -0.104529 -0.986849 -0.123297
9.1437 0.915922 -5.40865 0.996768 -0.0645352 0.0478471
-7.41268 4.50808 -9.36866 -0.297921 -0.109061 -0.94834
-6.77743 -9.57494 6.27797 -0.150762 -0.986271 0.0673816
-3.09781 1.1406 8.84148 0.181628 -0.0902456 0.979218
2.20691 -2.29535 8.83627 -0.154908 0.158862 0.975073
-8.07209 8.94054 -7.32936 -0.501983 0.814106 -0.291967
9.15539 -7.52041 -3.27315 0.925128 -0.349544 0.148181
-4.85951 -6.10941 9.61282 0.0828054 -0.0427569 0.995648
0.323245 -8.79163 -7.55445 -0.0252029 -0.906829 -0.420745
7.66766 -3.53845 -9.13889 0.387431 0.146157 -0.910239
-8.68658 -2.16404 1.27863 -0.980119 0.166074 -0.108565
-6.57919 -9.06794 0.110004 -0.146094 -0.989237 -0.00817829
-7.7178 -9.31625 -5.09717 -0.375654 -0.924147 0.0695382
-9.57121 -4.40198 -5.50317 -0.993545 0.109433 0.0298833
-4.52993 -3.57109 9.39241 0.110782 0.140277 0.983895
-4.78254 0.77615 9.08402 0.111096 -0.056414 0.992207
3.19552 -5.52946 -9.41437 -0.140462 0.0289954 -0.989661
9.07927 2.6339 -7.45151 0.92771 -0.144683 -0.344124
-6.99739 -6.68512 -9.49407 -0.196887 -0.136683 -0.970852
-7.84289 -8.8695 7.79318 -0.436677 -0.794531 0.42194
3.07162 -9.00553 -2.44896 -0.166273 -0.974351 0.151636
-9.44772 -7.41198 5.9737 -0.956707 -0.28994 0.025438
-0.175232 -9.09712 5.13734 0.0129375 -0.996786 -0.0790536
-1.56395 -6.53095 9.16084 0.102802 -0.129536 0.986231
-5.52743 -8.97438 -8.38234 0.0292825 -0.807067 -0.589733
9.13487 -6.01381 0.677601 0.998129 -0.0371431 -0.0485699
-8.3189 3.62053 8.77331 -0.607878 -0.149167 0.779893
-8.74812 0.789811 2.7499 -0.980654 -0.0670426 -0.183911
3.68832 -8.36726 8.74784 -0.147853 -0.623546 0.767679
7.64622 9.29858 4.61168 0.360521 0.926891 -0.104396
0.700406 0.742675 8.44801 -0.071203 -0.0753598 0.994611
-8.94848 3.72555 1.0652 -0.982117 -0.170176 -0.0805336
-4.83104 9.36126 7.53793 0.0893429 0.940583 0.3276
-2.78436 -7.41818 -9.11492 0.146431 -0.330883 -0.932242
-6.85736 4.82489 9.53305 -0.168038 -0.0868286 0.981949
-1.45449 -0.599594 -8.5178 0.13445 0.0585432 -0.989189
-9.22837 -7.40923 7.38352 -0.905912 -0.302602 0.296234
8.6125 6.86677 8.66362 0.685364 0.184893 0.704337
-8.23948 3.33979 8.77967 -0.588475 -0.1531 0.793887
1.62683 -8.93375 3.31903 -0.117539 -0.977635 -0.174399
-9.35869 2.78024 -5.67782 -0.990241 -0.138834 0.0121336
-9.09057 2.11981 7.19016 -0.951131 -0.129732 0.280212
-9.58709 -5.19224 -4.6931 -0.993856 0.0585677 0.0939171
-1.09663 -6.53663 9.11738 0.0766873 -0.133646 0.988058
-8.77061 -8.0646 2.64119 -0.821877 -0.549656 -0.149655
3.8074 -9.09351 -7.85968 -0.141591 -0.886112 -0.441314
6.13005 -9.45704 -3.53387 0.048514 -0.989332 0.13736
5.8814 -9.62361 4.91478 0.0129232 -0.996805 -0.0788179
2.13959 -9.12457 -7.07721 -0.129603 -0.959594 -0.249766
9.12701 2.65769 7.325 0.940732 -0.144013 0.307056
6.40806 8.30245 9.00056 0.0946393 0.56467 0.819873
-3.55069 9.09989 -2.5398 0.15954 0.976031 0.148019
-1.46991 -0.758626 -8.53049 0.134601 0.0730004 -0.988207
7.0754 1.14963 9.01354 0.263436 -0.0819124 0.961193
7.25394 -9.38743 4.27767 0.260576 -0.957993 -0.119789
-1.55352 4.49256 9.11278 0.104572 -0.128614 0.986166
-0.707892 -8.80247 -3.06593 0.0586645 -0.980946 0.185214
-9.48205 -3.86525 -6.41362 -0.987122 0.130819 -0.0920659
-1.34096 -3.74101 8.97624 0.0978344 0.167373 0.981027
5.02906 7.72435 9.30823 -0.0751997 0.378197 0.922666
-7.39745 8.86206 -0.422748 -0.367165 0.929587 0.032525
-8.47275 6.45452 8.86744 -0.626576 0.103368 0.772475
-3.45316 -5.35685 9.44413 0.138634 0.0465854 0.989247
-5.00008 -9.53889 4.35578 0.0750559 -0.990792 -0.112685
-1.75637 9.11676 6.90749 0.113613 0.970552 0.212417
4.75786 -9.31436 2.86431 -0.100702 -0.984669 -0.142429
8.63091 8.77427 -5.81249 0.679995 0.733199 -0.00502551
-3.60491 -9.46296 5.31058 0.136359 -0.989362 -0.0506799
-0.469699 8.53426 8.00289 0.0372539 0.807462 0.588742
-4.06923 8.98541 0.77484 0.157963 0.985699 -0.0586929
0.794384 -4.95534 -9.10309 -0.0572535 0.0958651 -0.993746
2.66394 -0.688408 8.72547 -0.183634 0.0594324 0.981196
-9.14363 -0.772117 5.8566 -0.998416 0.0549016 0.0122931
8.79877 1.48982 -2.66366 0.977416 -0.116803 0.176108
-8.81075 8.0542 -2.82316 -0.828392 0.539136 0.151983
-4.87002 7.72054 9.29575 0.0874501 0.378783 0.921345
8.95281 -0.804802 -3.86076 0.984018 0.0617537 0.167019
-7.51599 0.92067 -8.84019 -0.401254 -0.0689526 -0.913368
8.90794 1.18843 -3.43609 0.980052 -0.0906972 0.176841
9.35565 5.19836 2.89332 0.987982 -0.0639209 -0.140732
-9.21185 -6.19894 1.73621 -0.991741 -0.065974 -0.109989
-6.16765 9.57616 4.50138 -0.0515798 0.993182 -0.104545
-8.07334 2.13742 8.67567 -0.571708 -0.136717 0.808986
1.98648 -8.76706 -2.07874 -0.149404 -0.976655 0.154347
-3.94851 1.37983 9.01468 0.159267 -0.0985911 0.9823
3.59498 -7.93599 9.0188 -0.147278 -0.472268 0.869064
-9.299 -5.0447 7.74969 -0.919737 0.0740326 0.38549
-7.6424 -5.01344 -9.33934 -0.354778 0.0761031 -0.931848
-5.2701 5.45537 9.64201 0.0508585 -0.0338291 0.998133
0.497921 8.54402 1.67526 -0.0480082 0.987666 -0.149033
-8.38214 -8.33132 1.66099 -0.712488 -0.691879 -0.116897
1.27941 8.89622 3.32315 -0.097439 0.979198 -0.17798
4.92262 -9.62451 5.85636 -0.0782565 -0.996885 0.00985738
8.97619 -2.5602 2.79472 0.973843 0.157458 -0.16382
-8.8244 3.24448 -0.471535 -0.981985 -0.184888 0.039011
9.03537 7.26071 -1.86691 0.944787 0.304674 0.120625
-4.63173 -3.46864 -9.38893 0.10524 0.141314 -0.984355
3.34398 6.18357 9.42755 -0.139829 0.0572352 0.98852
8.86564 -8.18099 7.34059 0.788029 -0.539687 0.296223
-0.774664 -8.80589 3.06194 0.0638764 -0.9807 -0.184792
-5.30257 8.98441 -8.3526 0.0527796 0.812411 -0.580691
-3.47446 -0.150488 -8.85897 0.181611 0.0123239 -0.983293
4.22311 7.48055 -9.31123 -0.12373 0.319945 -0.939322
4.03388 -9.21968 2.83735 -0.141425 -0.978912 -0.147413
-4.44708 1.07936 -9.06273 0.134663 -0.0775549 -0.987852
9.03676 8.18912 6.67737 0.836371 0.528937 0.143907
-9.20739 -2.20485 6.72985 -0.977563 0.129563 0.166086
9.49595 4.23531 4.67268 0.987968 -0.119353 -0.0983544
9.32833 4.98771 -2.81198 0.986538 -0.083087 0.140849
2.22149 -8.69788 1.29221 -0.16792 -0.979766 -0.108908
-8.86454 -2.80271 1.8093 -0.975862 0.173736 -0.132324
9.13278 -1.16268 -4.99825 0.992612 0.0807089 0.0905957
-2.35233 -9.30002 5.66667 0.131125 -0.991269 -0.0138876
8.93341 -7.23482 0.69713 0.947971 -0.314034 -0.0522872
6.26555 4.31573 9.54989 0.0665765 -0.113858 0.991264
6.27513 -9.53772 -4.21736 0.0683486 -0.990639 0.118163
6.39903 4.7226 9.58213 0.0862492 -0.0922115 0.991997
-4.11385 9.44254 -4.32516 0.126129 0.984947 0.118197
9.15575 2.13738 -6.94716 0.967633 -0.128683 -0.217087
9.51072 -6.97958 -6.58536 0.974119 -0.192498 -0.11848
6.07886 -9.35676 -2.80818 0.0429063 -0.989311 0.139365
9.03976 -6.50037 -8.22653 0.834838 -0.110692 -0.539251
-2.28477 7.40853 -9.04211 0.136523 0.339383 -0.930688
-0.256059 8.30233 -8.26746 0.0205866 0.714192 -0.699647
8.37423 5.89856 -8.98357 0.58638 0.0163858 -0.80987
5.72567 -4.12419 9.54292 -0.00567393 0.121294 0.9926
-0.654828 -9.10825 -6.38066 0.0473586 -0.993502 -0.103491
-4.70013 9.53231 -6.79184 0.0947347 0.983233 -0.155814
-5.132 9.0028 -8.30834 0.0686156 0.821004 -0.566785
8.84329 7.85933 -2.33235 0.862551 0.485804 0.141419
-3.34648 7.83306 -9.03045 0.150185 0.445066 -0.882814
8.4261 8.94532 5.65736 0.605007 0.796091 -0.0143173
-4.53348 -9.58923 5.82398 0.102532 -0.994711 0.00603359
0.676879 -8.67005 2.36721 -0.0602581 -0.982228 -0.177753
-9.24785 -2.18082 5.06093 -0.988585 0.127654 -0.0800312
9.64242 5.80397 -6.31343 0.997437 0.00355051 -0.0714591
2.89058 -9.00802 -2.65737 -0.163261 -0.973871 0.157864
-0.0584468 7.03849 8.97321 0.00444243 0.260141 0.96556
9.3533 7.24523 -3.99954 0.956134 0.262058 0.130898
-8.77894 3.89251 -8.37644 -0.771606 -0.142225 -0.619997
-9.07952 -1.81104 -4.05399 -0.981282 0.119794 0.15078
-5.11495 8.77404 -8.59476 0.0706629 0.737872 -0.671231
4.86707 -9.59373 -5.05497 -0.08286 -0.99414 0.0694239
8.55924 1.28541 1.29501 0.986005 -0.117494 -0.118279
8.95101 1.42326 -3.54653 0.979538 -0.104221 0.17217
-3.52085 7.68795 -9.12734 0.146627 0.394093 -0.907299
-5.30359 -2.90963 9.36423 0.05362 0.140535 0.988623
-8.90893 -3.75481 0.0736244 -0.984829 0.173426 -0.00589212
9.19344 3.18049 -7.371 0.939554 -0.147437 -0.309031
9.42629 5.63721 3.26209 0.990009 -0.016584 -0.140025
9.10711 -4.48991 1.50265 0.986371 0.129146 -0.101953
-4.35854 -9.5622 5.38734 0.111668 -0.992879 -0.0414938
-8.07931 1.31299 -8.54924 -0.60188 -0.0967951 -0.792698
4.96902 4.58248 -9.56098 -0.0767096 -0.100965 -0.991928
-6.75928 -9.21121 2.27142 -0.171818 -0.976289 -0.131671
6.56884 -9.1403 1.41057 0.138503 -0.985798 -0.0949656
-8.97051 -2.43735 2.87716 -0.974048 0.1538 -0.16606
4.50874 -9.57019 -6.27961 -0.104351 -0.992201 -0.0681735
1.03397 -4.6238 9.08226 -0.0739571 0.122534 0.989705
2.75088 9.11179 3.42429 -0.152683 0.975338 -0.159385
-9.16829 -3.37174 7.52797 -0.925266 0.147348 0.349531
-4.23274 8.87943 8.32254 0.128727 0.797156 0.589891
-4.96613 9.33171 -7.65197 0.0798715 0.93032 -0.357947
-9.33341 -5.30076 2.69239 -0.988872 0.0546722 -0.138358
-8.67183 0.272045 2.47247 -0.982955 -0.0244963 -0.182209
8.85145 -3.09429 8.06853 0.831064 0.153338 0.534621
3.98146 9.49606 5.03681 -0.127541 0.989106 -0.0735046
-4.21866 -8.98662 -0.160638 0.151984 -0.988305 0.0124071
3.52626 -9.27569 -7.27773 -0.143199 -0.949956 -0.27763
0.241524 -8.42812 -0.774443 -0.0252053 -0.996516 0.0795052
5.25859 7.51186 9.40311 -0.0546034 0.317116 0.946813
8.50876 8.61263 3.63219 0.679093 0.718677 -0.149454
-5.60716 1.76643 9.22695 0.0220647 -0.110938 0.993582
2.12498 -9.23088 -6.49537 -0.125958 -0.984954 -0.118325
-7.10729 -9.51707 -5.29305 -0.218436 -0.974552 0.0503458
4.83632 -9.12007 -8.07599 -0.0916581 -0.866407 -0.490854
-6.19954 -4.8635 -9.60871 -0.0555114 0.0826374 -0.995032
8.02006 -8.89394 3.16056 0.514965 -0.843469 -0.152879
-3.92516 8.99945 -1.26198 0.161215 0.982643 0.0917748
-2.38945 0.123737 -8.65381 0.180521 -0.0112752 -0.983507
3.29863 6.68651 -9.3701 -0.14208 0.145925 -0.97904
8.35351 -0.432991 -8.22077 0.733766 0.0345881 -0.678521
-9.01438 7.07359 -1.15364 -0.96132 0.262895 0.0821519
-9.39207 6.70754 3.4728 -0.978906 0.148511 -0.140311
2.91213 -9.34341 -4.99655 -0.141604 -0.986538 0.0818033
1.14019 -8.21861 -8.41399 -0.0861485 -0.663203 -0.743465
5.80064 4.27446 9.56092 0.00325974 -0.115176 0.99334
-1.00221 2.51256 8.72069 0.0852547 -0.178639 0.980214
-9.07893 7.20418 7.8996 -0.858911 0.257759 0.44253
-0.990974 -4.39089 9.04825 0.0720999 0.138776 0.987696
8.50858 -0.753555 -1.3046 0.989695 0.0735216 0.122879
6.94634 9.00125 8.15767 0.200017 0.828546 0.522977
5.31307 -9.1651 -1.26537 -0.0580904 -0.9946 0.0860032
-9.6393 -5.26167 5.39366 -0.997875 0.0516344 -0.0397499
6.93957 4.70995 -9.50758 0.185471 -0.0946771 -0.978078
8.45656 -0.759115 -0.796182 0.993841 0.0765419 0.080138
-7.52159 -8.87605 -1.34335 -0.395759 -0.913335 0.0958876
3.32417 -8.75908 -8.26288 -0.153365 -0.786853 -0.597781
8.69133 -0.137798 -2.59034 0.982708 0.0122981 0.184751
1.56109 -2.70112 -8.81417 -0.120533 0.175756 -0.977027
-7.05073 0.221811 -8.9717 -0.263291 -0.0168316 -0.964569
0.0440762 7.68887 -8.72027 -0.00348194 0.469894 -0.882716
-4.52448 7.9212 9.16643 0.111266 0.445438 0.888372
-9.13412 4.86545 -1.32721 -0.990665 -0.101758 0.0907137
-3.85762 3.57145 9.30527 0.140674 -0.145244 0.979344
-2.89202 8.52786 -8.43094 0.154189 0.717265 -0.679527
8.55806 -1.63542 0.813176 0.986477 0.144825 -0.0767402
2.50354 9.31971 -5.63047 -0.13458 0.990735 0.0182403
0.410933 -9.12809 5.67545 -0.0298509 -0.999457 -0.0139552
4.05509 0.819728 -8.98589 -0.158412 -0.061926 -0.985429
-5.80954 0.273911 9.12526 -0.00532105 -0.019987 0.999786
-9.18719 -2.17307 6.81849 -0.973989 0.129064 0.186247
1.00324 3.70743 -8.94037 -0.0764679 -0.171231 -0.982259
-7.96242 9.03007 7.25381 -0.463843 0.843443 0.271025
3.40863 -0.377398 -8.85177 -0.182524 0.0308892 -0.982716
-0.966086 0.100494 -8.44263 0.0972399 -0.0104033 -0.995207
3.92681 -8.96239 0.779884 -0.164449 -0.984579 -0.0596653
-0.919139 -8.99095 4.04555 0.0688663 -0.984987 -0.158298
-1.4373 -4.34361 9.08054 0.0992721 0.138802 0.985332
-0.577854 -8.55017 -1.68824 0.0553591 -0.987226 0.149403
-1.95376 -2.99264 8.91821 0.136525 0.172713 0.975465
-3.01327 2.75086 9.04368 0.162448 -0.15755 0.974058
4.46927 -3.65836 9.39788 -0.113661 0.138939 0.983757
9.63423 5.9072 5.06414 0.997572 0.0160586 -0.0677685
-8.92729 -3.985 -8.19657 -0.822659 0.138239 -0.551473
9.60385 -4.68276 -5.84262 0.995539 0.0939926 -0.00825579
6.48603 4.40402 -9.5412 0.101747 -0.110234 -0.988684
-6.37172 -9.63754 -5.68036 -0.0803983 -0.996707 0.0105244
-3.22432 -4.54099 -9.34338 0.1442 0.112559 -0.983126
6.60331 -9.16344 -1.68166 0.143768 -0.983618 0.10875
9.21546 5.26783 1.79289 0.99174 -0.0613511 -0.112641
4.11682 4.68819 9.48288 -0.124115 -0.0979426 0.987422
2.35442 6.46753 9.26426 -0.132513 0.111281 0.984915
2.71082 7.70901 8.98344 -0.148004 0.422687 0.894109
-8.62896 2.12694 0.699854 -0.983417 -0.169807 -0.0636977
9.62199 -4.95728 6.07534 0.996393 0.0758866 0.0379759
-9.16204 -1.20216 5.35377 -0.995164 0.0822735 -0.0536647
8.61798 8.4627 -3.45241 0.727914 0.668485 0.152543
-9.22587 5.23191 1.90232 -0.990993 -0.0646865 -0.117253
-0.854537 1.56357 -8.55099 0.080814 -0.140091 -0.986835
-1.49369 3.66087 8.97849 0.107235 -0.168425 0.979864
4.29475 9.21665 7.74993 -0.122314 0.909964 0.396238
-1.09307 5.1054 9.13652 0.0762083 -0.080498 0.993837
-4.61633 6.09887 -9.59111 0.0980941 0.0416382 -0.994306
3.08552 8.88214 -1.54692 -0.177453 0.977317 0.115594
8.89994 1.9178 7.62577 0.900103 -0.125381 0.417246
-5.53361 -2.46197 9.31173 0.0299144 0.133817 0.990554
5.52182 -0.895984 9.14708 -0.0340064 0.0631413 0.997425
2.54979 9.07154 3.36985 -0.150219 0.975188 -0.162614
-8.80222 2.77138 1.34906 -0.978025 -0.178937 -0.107003
4.71559 9.10478 -8.07932 -0.100152 0.86371 -0.493938
9.58906 4.94601 -6.52492 0.991314 -0.0773763 -0.106345
8.41248 8.71936 -3.73488 0.638868 0.755168 0.146863
-0.753761 -8.89893 3.57122 0.0594562 -0.982426 -0.176932
1.97468 8.85214 -7.74001 -0.128511 0.881285 -0.454777
9.066 -7.40778 7.79079 0.857052 -0.308758 0.412469
-7.85161 1.31031 8.70312 -0.513575 -0.0957025 0.852691
-6.12338 -9.60714 4.80007 -0.044779 -0.995219 -0.0867986
-2.97909 -8.79631 -0.862036 0.184373 -0.980282 0.0710885
3.67865 1.76012 -9.01257 -0.165184 -0.120684 -0.978851
-0.103833 -9.07486 4.90144 0.0077371 -0.994751 -0.102033
0.479282 9.11715 -5.32106 -0.0348705 0.997666 0.058703
-4.80618 7.10565 9.48208 0.0890512 0.22072 0.971263
0.0051102 5.52313 9.11822 -0.00037484 -0.0343762 0.999409
-7.67655 5.02749 9.32728 -0.364372 -0.0751218 0.928219
-0.29569 -8.40635 -0.391332 0.0312813 -0.998656 0.0413177
-6.98955 -6.05626 -9.54959 -0.192526 -0.035952 -0.980633
9.33726 -2.74081 -6.25338 0.987748 0.139023 -0.0708967
-9.13043 7.90272 4.19008 -0.885712 0.446191 -0.128172
-2.13609 8.85122 -2.45256 0.150391 0.974936 0.163957
-4.6227 -9.04533 0.274436 0.125091 -0.991931 -0.0206438
9.11663 -6.88399 -1.71144 0.971924 -0.207229 0.111441
9.59201 -5.22297 4.72684 0.994212 0.0558575 -0.0917721
9.48555 3.72001 -5.47064 0.990429 -0.133685 0.0343423
-4.13348 9.45259 4.38889 0.12499 0.985478 -0.114933
-0.945619 -1.55598 8.55774 0.088605 0.138934 0.98633
-0.77396 -6.82222 -9.04716 0.0564482 -0.200787 -0.978007
2.71954 -9.21287 7.05553 -0.142818 -0.961457 0.234954
3.8352 -4.74705 -9.45187 -0.133114 0.0955327 -0.986486
5.20092 9.1033 -0.259204 -0.0722703 0.997203 0.0190679
0.304382 8.51398 1.52235 -0.0300375 0.989671 -0.140176
-0.836744 -8.54045 -1.49854 0.0797161 -0.987496 0.136004
1.93879 9.2082 6.49116 -0.119282 0.98572 0.118856
0.592749 -1.82206 8.57178 -0.0560244 0.156714 0.986054
9.27219 5.10698 7.82289 0.910897 -0.0691193 0.406804
0.089515 -8.2581 8.30822 -0.0072174 -0.696553 0.717469
-6.95648 -2.89549 -9.2618 -0.208623 0.143863 -0.967357
-1.3673 -8.91156 -7.44233 0.0968183 -0.924213 -0.369401
-0.80687 8.81294 -3.08808 0.0661835 0.980614 0.184436
-9.65899 5.6809 5.61315 -0.999789 -0.0104015 -0.0176922
-0.420594 -8.86881 7.38 0.0323279 -0.931806 0.361513
-5.97192 5.90435 9.65757 -0.0240342 0.0155798 0.99959
-5.08677 -9.16821 1.47076 0.0809204 -0.991912 -0.097784
8.66728 0.660591 2.35736 0.982338 -0.0589401 -0.177591
-8.80296 2.95309 -1.00937 -0.979639 -0.18317 0.0821994
3.2326 -4.80389 -9.37238 -0.142656 0.095013 -0.985201
-9.59436 -6.63612 5.21576 -0.990575 -0.124908 -0.0562104
-0.292472 -8.99232 4.24067 0.022487 -0.988349 -0.150532
4.13037 9.43558 -6.9713 -0.124381 0.972495 -0.196933
-9.38331 -3.00153 -5.4301 -0.989236 0.14068 0.040255
9.46646 -7.34785 5.56157 0.961451 -0.273919 -0.02411
4.43616 2.52042 9.22801 -0.124422 -0.139689 0.982347
2.42988 -8.28685 8.56264 -0.14634 -0.642993 0.751761
-6.49923 -9.29422 -2.59885 -0.115491 -0.983702 0.137815
-7.42713 -3.27623 9.18958 -0.322702 0.147375 0.934957
9.35266 5.58416 -2.74923 0.990076 -0.0234816 0.138559
-5.37124 -9.59044 -4.63298 0.0425734 -0.994352 0.0972192
-0.133453 -9.1168 -6.0631 0.0097854 -0.998905 -0.0457416
9.27062 7.8746 -6.03793 0.906903 0.419877 -0.0350648
4.2437 9.48263 6.79 -0.118795 0.980202 0.158402
0.87528 8.9479 7.22418 -0.0646822 0.948832 0.309087
9.40345 3.10051 -5.90263 0.98993 -0.140535 -0.0170061
9.38671 -3.08732 6.2509 0.987587 0.141141 0.068921
9.11964 -5.97298 -0.033871 0.999523 -0.0307811 0.002483
-8.98769 -0.823305 -4.06491 -0.985496 0.0621343 0.157917
-4.06266 -9.52168 6.23121 0.124033 -0.990332 0.0621162
3.68779 -9.25382 -7.4253 -0.141172 -0.938856 -0.314037
-4.04338 -9.50692 5.07761 0.125312 -0.989647 -0.0699641
-8.98171 1.1577 7.18693 -0.951962 -0.0829282 0.294773
-1.68133 -8.77846 -2.41162 0.130539 -0.976952 0.168893
8.71209 7.83893 1.32259 0.855645 0.508509 -0.0963809
8.39663 -8.91108 6.56578 0.600536 -0.790001 0.123508
9.18672 -5.03186 -1.69226 0.990404 0.085136 0.108864
6.31611 -9.21104 -1.8088 0.0864338 -0.989779 0.113433
3.92434 9.06686 -1.87237 -0.155643 0.980061 0.123516
-0.165781 -2.09364 8.60149 0.0155566 0.170769 0.985188
8.48425 -0.098119 -1.33324 0.991821 0.00988974 0.127252
2.02056 4.83636 9.20696 -0.123221 -0.100257 0.987302
1.25065 5.87833 -9.17702 -0.0847691 0.015319 -0.996283
8.94837 3.96832 -0.273961 0.986136 -0.16454 0.0214829
-4.92088 -2.29357 -9.25046 0.0916548 0.131522 -0.987067
9.23363 -3.21676 3.73647 0.977497 0.150741 -0.147568
-9.07661 1.94592 3.92666 -0.979808 -0.126532 -0.154809
-8.79909 -2.69128 1.45035 -0.977583 0.176932 -0.114133
-2.3065 -5.99008 -9.29145 0.130037 -0.0307134 -0.991033
0.370644 -5.91048 -9.12622 -0.0269727 -0.0207376 -0.999421
9.49378 -5.05978 7.14547 0.97109 0.070454 0.228079
-2.7947 3.77575 9.17457 0.149437 -0.150906 0.977188
-8.54665 1.40423 -1.0456 -0.986911 -0.128055 0.098022
4.38395 9.24732 -2.70064 -0.125886 0.981674 0.143072
-4.20239 -5.8596 -9.55204 0.118233 -0.010535 -0.99293
-9.21312 -4.24652 -2.59085 -0.980672 0.134165 0.142418
8.62096 0.998857 -1.93975 0.983086 -0.0898605 0.159585
-6.52757 9.13431 1.28526 -0.130652 0.987527 -0.0878638
-4.69302 -1.9162 -9.17867 0.112026 0.119972 -0.986436
-9.17431 -5.80847 1.20985 -0.996587 -0.00502652 -0.0823928
-9.59921 -4.71591 -5.39204 -0.994918 0.0921989 0.0404736
1.71446 8.81931 2.61974 -0.129795 0.97638 -0.172727
-0.242637 9.11792 5.45924 0.0177606 0.998943 -0.0423934
6.94201 9.54909 5.25746 0.183279 0.981621 -0.0531792
7.75413 -8.88248 -7.85637 0.410044 -0.798805 -0.440199
8.07602 0.468181 8.47875 0.618403 -0.0372274 0.784979
8.865 -2.6012 7.9008 0.858168 0.147825 0.491626
-0.085428 -9.11296 -5.39343 0.00627616 -0.998706 0.0504634
3.19511 -0.555265 8.81872 -0.185085 0.0459361 0.981648
-3.52286 -9.0047 -7.93932 0.148634 -0.867078 -0.475483
-0.203568 -8.98385 -4.1967 0.0157332 -0.988075 0.153164
-0.520841 -8.93393 -3.83705 0.0408338 -0.984713 0.169331
-9.01676 -0.0812267 -4.42828 -0.990254 0.00619769 0.139138
-7.72176 5.73765 9.34154 -0.373772 -0.00435924 0.927511
-8.78818 -2.13439 2.06614 -0.976096 0.155407 -0.151937
2.88972 6.01147 9.37084 -0.139945 0.0326802 0.98962
8.65725 1.00374 -7.87565 0.844692 -0.0760755 -0.529819
-2.93096 3.29672 -9.11944 0.155589 -0.158894 -0.974959
2.77917 9.2006 3.96335 -0.147488 0.978414 -0.144756
9.63625 -6.37396 -5.60486 0.996557 -0.0807756 0.0186863
-4.12999 9.18673 -2.52144 0.140412 0.979847 0.142074
5.21457 -6.06303 9.63949 -0.0556342 -0.036095 0.997799
4.63376 -9.59904 5.85458 -0.0969041 -0.995246 0.00973147
-7.17175 -8.07174 8.99285 -0.251898 -0.498388 0.829552
4.37913 -9.57181 -5.64003 -0.110426 -0.993767 0.0153045
-5.51064 4.12233 -9.53883 0.0294874 -0.121514 -0.992152
-6.84274 -9.15836 -1.98695 -0.194087 -0.973272 0.122766
-4.74572 6.6611 -9.55563 0.0914243 0.130999 -0.987158
6.27588 -8.68966 -8.69346 0.0730271 -0.704512 -0.705925
-3.57597 -0.97592 -8.91505 0.175313 0.075405 -0.981621
-7.03411 -5.61276 9.54417 -0.201747 0.0182496 0.979268
-3.15709 5.4471 9.40612 0.140708 -0.0380528 0.98932
-6.13347 -9.13393 -0.768482 -0.0572722 -0.996852 0.0548182
-5.78032 8.86596 -8.52696 -0.000870144 0.767022 -0.64162
9.35412 4.78733 7.54626 0.939325 -0.0924334 0.330341
-1.45416 -9.1934 5.97252 0.0959856 -0.994945 0.0295196
6.13642 -9.48626 3.74972 0.0488517 -0.989897 -0.133106
-9.43638 -3.48855 6.34687 -0.986882 0.138593 0.0827982
3.0615 -1.86094 -8.91768 -0.173795 0.131698 -0.975936
-0.194869 -7.6186 8.75797 0.0153037 -0.444032 0.89588
0.363442 6.77519 9.039 -0.0270799 0.191121 0.981193
-4.89692 -7.65942 -9.32269 0.0851648 -0.360787 -0.928752
-9.55499 5.98918 -4.24813 -0.992828 0.0272366 0.116411
-4.63684 0.0767514 -9.04447 0.12419 -0.00578971 -0.992242
-6.32528 -9.42469 7.42654 -0.0768951 -0.95237 0.295091
-9.20111 4.96785 1.86808 -0.989071 -0.0900359 -0.116758
-8.98463 -1.15421 -7.17647 -0.952901 0.0826627 -0.2918
6.09888 -9.38456 -7.58961 0.0431338 -0.940439 -0.337214
5.94944 4.23498 -9.55443 0.0220033 -0.116934 -0.992896
8.90859 2.05175 2.85871 0.974971 -0.142074 -0.171019
-5.71737 -9.66002 -5.88405 0.00636365 -0.999894 -0.0130847
8.50764 0.306212 1.47668 0.990091 -0.0303362 -0.137109
-8.87853 -8.25933 3.9536 -0.806142 -0.575 -0.139679
-7.64415 6.62456 9.31665 -0.35639 0.129837 0.925272
0.693277 0.824907 -8.45406 -0.070222 -0.0830466 -0.994068
1.92659 -7.7201 8.85539 -0.126423 -0.449216 0.884433
-6.51414 -9.59626 -6.43408 -0.104133 -0.990379 -0.0911377
-1.87787 1.29245 8.64138 0.153814 -0.112455 0.98168
-6.82231 9.05003 8.12343 -0.172903 0.843262 0.508933
8.83096 -8.19788 3.45146 0.808181 -0.569108 -0.151528
-2.3436 9.26486 -6.44909 0.132166 0.985341 -0.107869
2.34284 8.70756 1.18527 -0.172772 0.979849 -0.100228
-1.92172 0.608192 -8.58876 0.161597 -0.0568767 -0.985216
-8.23711 -5.93283 9.07609 -0.538193 -0.0209459 0.842561
8.88781 7.35327 0.625872 0.935041 0.351344 -0.0475042
-1.20568 -2.54473 -8.74576 0.0997107 0.177299 -0.979093
-9.48315 -4.48885 4.28954 -0.987055 0.108834 -0.117804
9.26003 -5.8128 -2.03377 0.992585 -0.00541182 0.121435
9.15831 -5.79458 -0.999403 0.997567 -0.00304434 0.0696447
6.35966 -9.52694 -7.01327 0.080748 -0.976772 -0.198485
9.33957 -6.01924 -7.71649 0.927414 -0.0321388 -0.372653
3.803 9.49539 6.09275 -0.131713 0.990382 0.0423621
8.00115 2.06972 -8.71383 0.546708 -0.133884 -0.82655
0.860461 -1.72416 8.57508 -0.0801776 0.149653 0.985482
-3.91972 -2.05959 -9.09046 0.153911 0.130928 -0.979372
9.10095 -5.20025 -0.0702763 0.99736 0.072433 0.00518605
7.00869 7.48418 9.30542 0.206678 0.317028 0.925623
7.51931 -9.23377 -3.77275 0.338616 -0.930477 0.139829
-1.94777 7.67472 -8.88095 0.126962 0.433003 -0.892407
8.10617 3.26753 -8.85902 0.542154 -0.152929 -0.826245
0.509287 2.39133 -8.66539 -0.0457484 -0.179353 -0.98272
9.42983 -5.20238 -3.41164 0.988305 0.0614861 0.139543
-9.10227 6.32817 -0.351084 -0.995259 0.0937942 0.0257456
7.46511 -4.23382 9.31785 0.315593 0.123149 0.94087
-4.6427 -9.38457 3.43014 0.104789 -0.984339 -0.141763
-0.470212 -8.67456 -2.45088 0.0420764 -0.982584 0.180993
9.36057 -3.96642 3.84829 0.981263 0.13481 -0.137655
-2.89277 0.305748 8.75204 0.187282 -0.0263554 0.981953
-4.86892 9.22024 2.09999 0.0971191 0.987284 -0.125849
-9.4124 -5.97035 7.52281 -0.947506 -0.0251431 0.318748
-8.88309 3.53919 -0.565643 -0.982845 -0.178776 0.0453333
5.69667 9.50063 -3.79517 -0.00920162 0.991251 0.131669
-8.73978 0.681155 -2.74249 -0.981081 -0.05838 0.184584
8.03926 8.54035 0.947661 0.595262 0.800234 -0.0727227
1.61229 -2.19921 8.73314 -0.129254 0.163473 0.978044
-2.061 6.3748 -9.23587 0.123361 0.095829 -0.987724
-1.06864 -9.15053 5.33558 0.0742702 -0.995662 -0.056041
-8.62812 -0.746231 2.10401 -0.983348 0.067806 -0.168607
8.18465 -0.132802 -8.37712 0.665826 0.0106945 -0.746031
-7.0361 0.232503 -8.97585 -0.259204 -0.0176242 -0.965662
-7.46768 -3.04091 9.13779 -0.339442 0.148411 0.928845
-2.3264 9.08772 -3.6703 0.141786 0.977024 0.159127
-8.78604 -2.73975 1.25139 -0.978533 0.179676 -0.100943
7.49716 9.40427 -5.19693 0.313589 0.947654 0.0601092
-1.60024 5.59575 -9.20877 0.103313 -0.0237257 -0.994366
-8.55233 -5.49214 8.83814 -0.651789 0.0333279 0.757668
9.40277 -5.27341 -3.19152 0.988447 0.0556027 0.140999
-4.16436 -0.606929 8.99152 0.153852 0.046223 0.987012
-9.52033 6.41046 7.02401 -0.975542 0.0889623 0.201007
0.63599 0.137013 -8.41592 -0.0662154 -0.014432 -0.997701
-0.569641 -6.49147 9.09162 0.041558 -0.126339 0.991116
-4.32126 8.0592 9.06499 0.12307 0.495025 0.860119
9.07127 -4.73517 -0.635107 0.992214 0.115442 0.0467285
1.64371 -8.7812 2.45604 -0.12797 -0.977026 -0.170424
3.70783 3.33837 -9.24803 -0.147091 -0.150038 -0.977677
3.28274 5.40178 -9.42212 -0.14022 -0.0424924 -0.989208
-8.96555 -3.7929 1.13079 -0.982277 0.167353 -0.0844091
-5.11645 -0.723281 9.11348 0.0804188 0.0521289 0.995397
-5.2484 -4.76232 9.59664 0.0535716 0.0894796 0.994547
-4.85713 -9.33672 2.95149 0.0927546 -0.985445 -0.142459
3.19538 -6.96016 -9.30575 -0.144295 -0.205392 -0.967984
-2.25775 9.25431 -5.01773 0.130108 0.987976 0.083521
-8.75184 -3.99858 -8.4331 -0.757705 0.138795 -0.637667
9.28693 4.76913 2.66521 0.984947 -0.101217 -0.14012
2.02221 -8.95027 7.54545 -0.128905 -0.912531 0.388162
9.4736 -7.2594 -6.31128 0.964451 -0.253685 -0.0740153
0.723347 -8.64304 7.86328 -0.0561549 -0.846003 0.530212
-4.38973 9.34334 -3.34617 0.12026 0.9822 0.144293
4.51195 8.02266 9.11154 -0.112596 0.47877 0.87069
5.53166 3.82634 -9.50167 -0.0276981 -0.130991 -0.990997
-2.32198 9.29591 5.65917 0.130351 0.991357 -0.0148616
-7.84269 9.10593 3.83284 -0.435194 0.88927 -0.140731
-1.50101 1.44661 8.60537 0.130908 -0.126814 0.98325
-9.02638 -4.34762 -0.748684 -0.988195 0.142681 0.0557975
5.95527 -8.90254 8.47881 0.0242475 -0.78077 0.624348
-2.75395 2.45135 -8.9518 0.164848 -0.155711 -0.97395
-6.73804 -9.54732 4.77254 -0.145143 -0.985316 -0.0899267
-7.82761 8.8078 -1.99371 -0.485244 0.86468 0.129875
-5.97344 9.46387 7.35729 -0.0253287 0.960758 0.27623
-4.35367 1.51409 -9.08986 0.137631 -0.103329 -0.985079
-0.0299122 2.49133 8.67198 0.00269959 -0.182982 0.983113
-4.81737 6.93936 -9.51763 0.0876328 0.184762 -0.978869
7.88476 6.52452 9.22674 0.426829 0.113127 0.897229
5.79572 6.43516 -9.63257 0.00259023 0.0903985 -0.995902
2.16017 -8.15174 8.62199 -0.137881 -0.601094 0.787194
3.71246 9.0288 -1.84451 -0.163284 0.97873 0.124198
-5.23895 -3.49121 -9.44323 0.0578234 0.138408 -0.988686
-6.93674 -5.56861 -9.56226 -0.181479 0.0228986 -0.983128
9.22695 4.35405 2.58683 0.981555 -0.128534 -0.141524
3.40412 -2.08893 9.00918 -0.167699 0.137097 0.976259
4.59846 -5.18177 9.57725 -0.0995404 0.0596624 0.993243
8.47141 -8.46753 -7.67137 0.651335 -0.649924 -0.391614
5.97985 7.56426 9.39792 0.0264821 0.329912 0.94364
9.63624 5.0882 -5.87927 0.997748 -0.065882 -0.0126047
-9.31685 2.66261 -5.1097 -0.98765 -0.138534 0.0731837
-3.72821 -9.46876 -5.1252 0.134313 -0.988662 0.0671314
-4.90608 -9.08547 -0.531918 0.10105 -0.994113 0.0390873
1.83084 8.57839 0.678666 -0.156665 0.985597 -0.063674
-3.96887 -8.21868 8.90958 0.138933 -0.559862 0.816855
9.115 4.37592 1.71469 0.984401 -0.134745 -0.113132
0.747509 1.43342 8.52475 -0.0722232 -0.132174 0.988592
-0.375679 8.4114 0.441585 0.039545 0.99814 -0.046407
6.5724 -0.0924536 -9.06881 0.144607 0.00687297 -0.989465
9.03518 7.88452 7.36252 0.846561 0.44098 0.298113
-5.53998 -6.91575 -9.56537 0.0258818 -0.177257 -0.983824
4.54964 9.41841 7.25793 -0.105829 0.960199 0.258493
-6.08359 -9.43326 -3.3489 -0.0421512 -0.989313 0.139584
9.42464 -7.35866 4.89702 0.956309 -0.280107 -0.0837479
-5.85726 -8.52256 -8.86905 -0.0109046 -0.640079 -0.768232
-5.79857 9.21086 1.60003 -0.00352654 0.994651 -0.103231
-2.68904 0.996895 8.75268 0.181569 -0.0833963 0.979836
-8.17784 8.49175 -8.03103 -0.552722 0.663468 -0.504291
9.0349 -1.19307 -4.18881 0.985052 0.085944 0.149286
-9.37947 -4.0966 7.19608 -0.960201 0.127033 0.248749
9.46434 5.61615 3.53629 0.990388 -0.0187284 -0.137044
-4.68199 4.72178 -9.54958 0.0958305 -0.0934761 -0.990999
-6.45664 6.05466 -9.62578 -0.0939924 0.0350839 -0.994955
5.48165 -8.27357 9.04825 -0.034174 -0.551444 0.833511
9.22663 -3.6001 -7.46581 0.934109 0.143353 -0.326941
9.12878 -1.88271 6.92176 0.969475 0.119118 0.214309
3.2878 -6.34769 9.40787 -0.140735 -0.0839599 0.986481
