# x y Mean_Curvature nx ny
-2.33921 -4.54342 9.216 0.134809 0.119265 0.983668
4.0747 -9.30784 7.4309 -0.129469 -0.942255 0.308857
9.39129 3.10409 6.21831 0.987957 -0.141052 0.0636008
1.2511 0.777106 8.50382 -0.118701 -0.0759606 0.99002
-6.74355 -4.92294 9.55946 -0.145509 0.0795938 0.98615
1.72707 5.88256 -9.22363 -0.109163 0.0155733 -0.993902
6.23055 4.47959 9.57029 0.0608531 -0.105795 0.992524
-1.63335 -0.920506 8.56662 0.14391 0.0859181 0.985854
2.21855 5.82442 -9.28315 -0.12744 0.00695407 -0.991822
-2.78837 -3.08904 9.06235 0.157017 0.161921 0.974232
-4.39067 -9.12425 1.77691 0.133361 -0.98427 -0.115873
3.47839 9.00394 1.95797 -0.16789 0.977024 -0.131291
-8.9195 -1.12723 7.3619 -0.933937 0.0818691 0.347936
-0.646957 -3.69503 -8.91503 0.0509072 0.173843 -0.983457
9.22574 2.72602 4.19419 0.980134 -0.14487 -0.135465
1.82624 -8.64264 -1.37119 -0.150417 -0.981505 0.118415
-1.46603 -2.26166 8.72507 0.119822 0.16727 0.978603
4.25936 3.87428 -9.40268 -0.122848 -0.134781 -0.983231
-3.61021 -9.09147 -7.79849 0.145882 -0.892583 -0.426632
6.30718 9.12238 -0.789264 0.0888617 0.994445 0.0564176
2.31895 3.60482 9.07592 -0.142258 -0.160886 0.976667
3.44028 8.86542 -0.575104 -0.181063 0.982373 0.046466
-4.01073 -1.10358 8.99942 0.158706 0.0813138 0.983972
7.38371 -8.53495 8.55615 0.310024 -0.668353 0.676158
9.37269 5.37198 -2.94477 0.988977 -0.0465323 0.140568
-0.870936 7.02901 9.0049 0.0636789 0.253593 0.965213
5.36327 4.01171 9.51953 -0.0445294 -0.125684 0.99107
1.96806 0.83661 8.61187 -0.162215 -0.0763841 0.983795
9.0497 4.42028 0.953943 0.988114 -0.137093 -0.0695408
-9.00996 -1.47124 -3.86193 -0.981269 0.104381 0.161914
-7.58527 -4.24865 9.27714 -0.348669 0.123314 0.929098
7.79156 3.82579 9.12928 0.419064 -0.140536 0.897014
4.81289 3.40753 -9.39845 -0.0933241 -0.141135 -0.985582
-9.28244 -7.81737 -6.28044 -0.912034 -0.403857 -0.0713731
2.23969 -0.509483 -8.63806 -0.174913 0.0464726 -0.983487
4.01985 5.0333 -9.50072 -0.126268 -0.0736395 -0.989259
-1.1931 2.13963 -8.67322 0.102766 -0.166076 -0.980743
-6.41828 1.99441 -9.22322 -0.104379 -0.121121 -0.987135
-4.37181 -8.55256 8.71259 0.122537 -0.671135 0.731138
7.66839 -8.75891 -0.79894 0.45629 -0.887736 0.0610224
-1.32578 -6.38976 -9.15418 0.0897697 -0.102707 -0.990653
-2.13637 3.2596 8.99098 0.140384 -0.169068 0.975555
-6.63054 -3.33792 -9.38379 -0.134625 0.141475 -0.980745
0.653818 2.8018 -8.74937 -0.0558215 -0.185252 -0.981104
1.95125 2.56256 8.84229 -0.141697 -0.168698 0.97543
8.7247 6.10462 8.67247 0.715989 0.046051 0.696591
8.70541 2.34723 -1.15634 0.979989 -0.173188 0.0981141
-1.18377 -3.90385 -8.98882 0.0870741 0.162707 -0.982825
-4.06652 6.84506 -9.45118 0.126129 0.170911 -0.97718
-0.576922 -9.12604 6.1084 0.0416691 -0.997714 0.0531985
4.97772 6.25552 -9.61439 -0.0745858 0.063523 -0.995189
4.3349 9.35574 -3.4771 -0.122104 0.982151 0.143075
4.23387 4.93216 9.51932 -0.118395 -0.0806269 0.989688
-6.8897 -9.19197 2.31338 -0.200967 -0.970447 -0.133586
9.60223 5.08614 4.94612 0.994775 -0.0668114 -0.0771991
-9.64858 -6.13603 5.4944 -0.998499 -0.0458752 -0.0299217
7.7605 8.70282 -0.701186 0.491516 0.869178 0.0542354
6.10049 9.20207 8.00833 0.044397 0.885598 0.462325
8.92054 3.45527 1.28421 0.979713 -0.175569 -0.0966367
9.15649 -6.84266 -7.92326 0.878985 -0.175424 -0.443409
-8.94112 -8.26418 -6.90311 -0.806618 -0.559252 -0.191324
-2.1133 -0.631989 8.62241 0.169716 0.0579042 0.98379
-2.62519 4.50039 9.25097 0.141135 -0.119684 0.982729
-6.03255 -9.34812 2.73351 -0.0361363 -0.989708 -0.13846
1.10279 -9.11093 4.82626 -0.0775779 -0.99132 -0.106139
8.49012 -0.985838 0.953961 0.991001 0.0961028 -0.093173
3.95541 9.14757 2.42916 -0.148682 0.978692 -0.141615
-1.20591 -3.82661 8.9779 0.0889734 0.165528 0.982183
-8.87559 3.10514 -1.45934 -0.977758 -0.178337 0.11039
2.50542 2.06435 -8.84923 -0.166077 -0.147034 -0.975089
8.16705 8.47848 -1.30534 0.637376 0.764478 0.0965658
9.33435 4.87727 -7.62419 0.932377 -0.0864426 -0.351001
0.595185 -8.65509 7.83123 -0.0465316 -0.853072 0.519714
7.67193 7.91488 8.89055 0.386049 0.457361 0.801116
-1.32814 0.500227 8.49574 0.125883 -0.0496857 0.9908
-7.86342 9.14391 7.0324 -0.427798 0.877584 0.216413
8.42105 1.34644 -8.23952 0.739738 -0.0992027 -0.665542
4.88942 3.4535 -9.41203 -0.0874135 -0.140204 -0.986256
8.46464 8.77564 -4.28559 0.640738 0.75723 0.126715
4.13734 -8.36475 8.83161 -0.133118 -0.608045 0.782662
-0.182677 -9.03637 4.56534 0.0138124 -0.991485 -0.129483
0.624874 -1.24516 -8.49251 -0.061924 0.119049 -0.990956
4.1908 9.10131 1.82124 -0.144111 0.982356 -0.119201
6.88926 3.27016 9.33123 0.188581 -0.143437 0.971526
-2.0887 -4.85085 -9.21701 0.125551 0.0986608 -0.987169
-3.12084 -3.40399 -9.16695 0.154578 0.1554 -0.975683
0.340607 -8.62491 2.20333 -0.0314457 -0.984173 -0.174398
8.7669 2.45332 1.5356 0.977587 -0.171679 -0.12186
2.91174 9.3029 4.58819 -0.143754 0.983263 -0.111933
-9.39762 -3.06921 -5.96672 -0.989729 0.140587 -0.0259255
3.90292 9.47503 4.90195 -0.130493 0.987863 -0.0842475
-9.15771 -5.56328 8.09926 -0.870476 0.0249416 0.491578
2.74407 -2.85707 9.01655 -0.159439 0.161932 0.973836
-8.17469 -4.86928 -9.06513 -0.523808 0.0896504 -0.847105
6.69509 9.48258 7.04573 0.13884 0.968359 0.207374
4.73557 6.76889 -9.53926 -0.0924181 0.151197 -0.984174
-1.36198 0.246113 8.49055 0.129157 -0.0246694 0.991317
-0.283774 2.78672 -8.73127 0.0247399 -0.186801 -0.982086
4.43721 5.51406 -9.57538 -0.107677 -0.0287193 -0.993771
-7.63204 -1.22793 -8.81348 -0.435742 0.0895536 -0.895605
-1.2535 0.549494 -8.48908 0.120033 -0.0547213 -0.991261
-9.03374 0.563752 -6.83597 -0.977801 -0.0417316 -0.205338
-9.03236 -6.95142 -0.985928 -0.970134 -0.23194 0.0710236
-3.93351 -8.9589 0.699902 0.164581 -0.984893 -0.0538496
7.7792 8.87694 2.27102 0.459578 0.877182 -0.139069
-5.07191 -6.74556 9.57034 0.0683196 -0.14532 0.987023
5.28941 9.58587 -6.72855 -0.0498951 0.988679 -0.141508
-4.47629 -9.03047 -0.436799 0.135359 -0.990249 0.0329238
-3.98793 -5.56736 9.52356 0.126178 0.0236266 0.991726
-9.19054 -7.04574 -2.55158 -0.961805 -0.235181 0.140075
7.80933 5.15995 9.28209 0.402224 -0.0644731 0.913268
-3.04843 9.39304 -6.02073 0.140632 0.989489 -0.0336885
-4.95558 -7.2761 9.45281 0.0790441 -0.259321 0.962551
-0.0691413 -8.61354 -2.16867 0.00644781 -0.984772 0.173731
-2.43012 7.37967 -9.07399 0.140059 0.327604 -0.934376
1.98768 0.570648 -8.59759 -0.164845 -0.0531648 -0.984886
2.56798 3.60139 -9.11242 -0.148009 -0.158079 -0.976271
9.16517 2.24666 -4.25165 0.981411 -0.134305 0.13709
6.65875 8.64353 -8.68139 0.141974 0.692875 -0.706942
-2.96031 -3.42591 9.14503 0.154251 0.156908 0.975493
8.85047 1.91099 2.64287 0.975501 -0.138937 -0.170572
-0.149853 2.69761 8.71175 0.013226 -0.186237 0.982416
-7.25796 -2.23981 9.08664 -0.296738 0.134045 0.945504
4.77442 8.74828 -8.58004 -0.0977722 0.734385 -0.671654
3.41423 9.14334 7.60894 -0.14753 0.916205 0.372564
4.42083 -9.57373 -5.51893 -0.10849 -0.993697 0.028235
-6.70217 9.46352 -7.1263 -0.140692 0.964072 -0.225325
-6.92727 -9.51275 -6.64843 -0.181973 -0.974735 -0.129531
8.58914 7.92076 -0.409861 0.830123 0.556633 0.0324864
5.86377 9.40413 -3.10131 0.0117673 0.990009 0.14051
9.4321 -5.2235 -3.41854 0.988446 0.0595153 0.1394
9.37777 7.49765 -4.86041 0.944609 0.316443 0.0870495
-5.57761 -4.90507 9.62136 0.0216867 0.0795391 0.996596
9.20727 6.96484 7.76099 0.896548 0.200077 0.395185
-3.44616 -9.03304 7.86126 0.149208 -0.879683 0.451546
3.2349 -3.91309 9.26258 -0.14898 0.142012 0.97859
-2.63186 -7.15269 9.17469 0.142258 -0.261014 0.954796
-1.99063 -0.216124 -8.5848 0.166334 0.0204667 -0.985857
-6.96568 -9.23155 -7.70402 -0.199634 -0.903918 -0.378257
7.59593 8.78771 -0.685815 0.432017 0.90033 0.0526102
-5.70288 -9.55611 4.23544 0.00828393 -0.993114 -0.116858
7.18911 0.320175 -8.93299 0.302804 -0.024422 -0.95274
3.02593 9.38772 5.45392 -0.140701 0.989336 -0.0376362
-8.4412 -8.13053 -0.590092 -0.767725 -0.639076 0.0466838
7.05379 9.28937 3.22593 0.226788 0.963121 -0.144794
3.82927 9.03044 -7.98593 -0.141913 0.864287 -0.482565
-8.40576 6.63096 -8.89335 -0.604893 0.135983 -0.78461
5.07155 0.548778 9.10165 -0.0853021 -0.0400509 0.99555
-8.30506 -8.27855 8.14605 -0.598117 -0.588854 0.543606
9.38075 6.6989 -3.38503 0.978895 0.147595 0.141351
-5.77072 -4.01465 9.52945 0.000336002 0.125194 0.992132
-6.07967 -9.27548 2.20977 -0.0447212 -0.990839 -0.127432
7.35271 0.587523 8.88613 0.351505 -0.0446979 0.935118
3.13197 3.02222 -9.10724 -0.158933 -0.157768 -0.974602
6.90184 9.2023 -2.40584 0.202586 0.969774 0.136006
-9.24604 -5.5946 1.93456 -0.992755 0.0234242 -0.117848
6.56956 9.12755 -1.27383 0.139571 0.986353 0.0873392
-2.75274 8.75111 -0.824956 0.183677 0.980506 0.0697858
-7.98005 -8.54534 -0.332695 -0.580906 -0.813539 0.0265127
-9.0701 0.432114 -4.79558 -0.993311 -0.0320558 0.11093
-9.44498 -5.09685 -3.56974 -0.987997 0.0701861 0.137607
4.57722 -0.852549 9.0639 -0.126798 0.0621909 0.989977
-1.92715 -3.18976 -8.94941 0.133134 0.172294 -0.976007
-8.06057 -8.70383 7.84879 -0.509436 -0.73758 0.443227
-8.70733 -8.47792 -7.13648 -0.726348 -0.641581 -0.246563
8.98232 1.96131 3.35084 0.976448 -0.132777 -0.170059
-1.52612 -9.16654 6.45307 0.100642 -0.988365 0.114044
-8.78839 7.67202 -1.1751 -0.888369 0.450917 0.0864517
-4.00583 -2.61099 9.18176 0.144826 0.144797 0.978805
7.714 -8.76693 -1.17804 0.4659 -0.880565 0.0868442
-1.4729 5.70407 9.19778 0.096883 -0.00959451 0.99525
1.87195 -9.24074 5.73608 -0.1153 -0.993318 -0.00510116
-0.857078 -8.69005 2.40917 0.0747898 -0.981269 -0.177534
-6.82304 -7.59803 9.30222 -0.168266 -0.345782 0.923104
7.67749 5.4994 9.3544 0.361564 -0.0312476 0.931824
9.4506 3.73486 -6.54545 0.984103 -0.134668 -0.115783
-6.02697 -9.41601 3.2116 -0.0342395 -0.989501 -0.140414
6.11448 4.18564 -9.54305 0.0446188 -0.119156 -0.991872
3.73524 8.95254 1.09404 -0.169633 0.982058 -0.0823832
-6.14027 5.66781 9.65204 -0.046409 -0.0118557 0.998852
-9.16014 -1.04721 -5.92147 -0.997113 0.0726596 -0.0220545
-8.6599 -1.9633 1.33546 -0.980876 0.157352 -0.114552
8.94525 1.24834 -7.32155 0.938506 -0.0891441 -0.333557
8.33259 8.25629 -0.645125 0.721855 0.690166 0.0509616
-9.29731 -7.09952 7.44519 -0.923999 -0.226791 0.307882
-9.23498 7.42844 -7.34281 -0.907712 0.307065 -0.285953
1.89754 8.99417 -7.39169 -0.122832 0.93133 -0.342836
-9.21249 -4.48066 2.36993 -0.983044 0.122989 -0.136006
9.31315 7.50488 -4.30229 0.937904 0.325379 0.120271
-4.56407 -6.26295 -9.57704 0.101304 -0.0655026 -0.992697
4.56037 3.62526 -9.40349 -0.108623 -0.139073 -0.984307
-2.89884 0.324109 -8.7537 0.187242 -0.0279032 -0.981917
-0.972492 -0.780198 -8.47384 0.0958736 0.0777167 -0.992355
-4.00795 -6.17535 -9.51805 0.125806 -0.0538945 -0.99059
-7.70439 -8.83188 -7.9867 -0.397054 -0.781248 -0.481663
-2.10743 4.05502 -9.11771 0.131448 -0.147859 -0.980234
-4.46453 -6.63845 -9.53015 0.10766 -0.128241 -0.985882
-3.90451 -9.03304 8.00317 0.139727 -0.862509 0.486369
-6.72745 -9.56924 6.4399 -0.141878 -0.985535 0.0926918
2.01285 -8.98437 3.32198 -0.135144 -0.976161 -0.169843
-0.0658678 -3.91476 8.93654 0.00520534 0.167157 0.985917
8.7105 3.25572 -8.30787 0.771487 -0.154102 -0.617301
9.12836 -2.19554 4.04636 0.979907 0.134419 -0.147358
-7.91597 -4.69982 9.1899 -0.440808 0.100343 0.891975
-1.88822 -9.15609 -6.79135 0.118628 -0.975871 -0.183309
-3.56801 -8.51537 -8.59288 0.150732 -0.684076 -0.713667
-1.2461 8.59717 1.61806 0.111681 0.983811 -0.140157
-9.44225 -6.34266 7.36345 -0.956937 -0.0794081 0.279225
9.16246 5.24714 1.282 0.994063 -0.0652402 -0.0870785
8.64686 7.91518 1.15681 0.836199 0.541581 -0.0863838
-2.66738 -6.11516 -9.33535 0.13771 -0.0489105 -0.989264
-5.02715 -6.83651 -9.55294 0.0720614 -0.162958 -0.983998
9.3184 4.21069 -3.33155 0.980842 -0.129265 0.145739
-7.2353 -8.98715 -1.37726 -0.305717 -0.94725 0.0962031
-1.7294 -3.5497 -8.98677 0.120435 0.168911 -0.978246
-9.2986 -7.18265 7.37564 -0.924749 -0.245459 0.290841
-2.34162 -0.790368 8.67296 0.176258 0.0698708 0.981861
-8.17505 0.492069 -8.39762 -0.658822 -0.0391739 -0.751278
0.0804143 2.05242 -8.59338 -0.00758666 -0.169198 -0.985553
-2.97906 -2.88407 9.05967 0.16072 0.159139 0.974086
3.08477 -3.7797 -9.2198 -0.150749 0.147714 -0.977474
9.44861 5.84355 -7.41664 0.956704 0.0086065 -0.290934
4.35333 7.12863 9.42859 -0.115483 0.229896 0.966339
-1.3494 -3.29167 -8.89763 0.102056 0.177738 -0.978772
-8.87269 -8.28868 7.09391 -0.785816 -0.572004 0.235167
-9.18473 -4.09192 -2.54545 -0.97952 0.141878 0.142866
2.1088 -1.7665 -8.7394 -0.158306 0.138699 -0.9776
6.88646 9.44245 7.08601 0.176683 0.959873 0.217779
-0.382094 -9.01786 6.87917 0.0285919 -0.975755 0.216992
2.52986 3.02345 9.01002 -0.153967 -0.165281 0.974154
8.46493 -2.09515 -8.32475 0.72798 0.136088 -0.671956
-2.05679 6.84457 -9.16691 0.125324 0.193669 -0.973029
8.52525 -0.739032 -1.44178 0.988567 0.07141 0.132802
0.969668 -7.61931 8.79625 -0.0727265 -0.436105 0.896952
9.49154 4.44355 -6.87505 0.978615 -0.109687 -0.174014
-1.74552 1.35085 -8.62799 0.146392 -0.117864 -0.98218
0.704489 3.3358 -8.85289 -0.0569479 -0.18235 -0.981583
1.29652 8.96231 -7.28589 -0.0918212 0.942284 -0.321979
-3.92172 -4.55774 9.44402 0.131542 0.106952 0.985524
-1.77668 -5.92756 9.22827 0.111373 -0.022197 0.993531
8.995 3.9325 8.07627 0.848428 -0.13931 0.510649
0.382721 8.78197 3.03763 -0.0324282 0.981833 -0.186955
-1.22398 0.508306 -8.48334 0.117907 -0.0508722 -0.991721
5.50311 2.76183 9.35212 -0.0328075 -0.138811 0.989775
-9.02125 8.09936 7.0106 -0.836561 0.504359 0.213979
-0.323179 -2.18986 8.62198 0.0298977 0.173987 0.984294
9.16168 1.23598 5.29793 0.994638 -0.0843391 -0.0598462
-3.67079 -4.0421 -9.34564 0.141663 0.133497 -0.980872
7.38358 3.00548 -9.16172 0.316169 -0.14763 -0.937146
1.44754 -4.43657 9.0944 -0.0993041 0.132997 0.986129
-0.712169 -0.0227174 -8.4203 0.0737007 0.00238726 -0.997278
4.37295 1.74126 -9.11766 -0.13471 -0.114376 -0.984262
-8.41682 0.605377 -0.270903 -0.997603 -0.0630627 0.0284711
7.75083 6.01029 -9.32586 0.382615 0.0309573 -0.923389
-7.20806 0.422835 -8.92996 -0.307968 -0.0321631 -0.950853
8.95725 -0.667346 3.934 0.984997 0.0514619 -0.164718
-5.96807 0.120504 -9.12028 -0.0299757 -0.00882754 -0.999512
9.11209 6.47714 -0.915704 0.990381 0.122109 0.0650765
-0.621987 -8.77471 -2.94495 0.0524793 -0.98115 0.185986
2.82918 -1.83395 -8.87261 -0.173626 0.133171 -0.975766
-6.86945 -9.15941 -2.03763 -0.199746 -0.97187 0.124782
-1.19172 -9.16579 -6.08059 0.0815097 -0.995543 -0.04744
7.91159 6.70448 9.18754 0.437577 0.147219 0.887047
-4.48886 5.68231 -9.58424 0.104916 -0.0105244 -0.994425
8.72252 -1.15957 -2.44152 0.979631 0.0974515 0.175576
-8.8629 1.66298 -2.9007 -0.976542 -0.123868 0.176135
-8.84673 2.63331 1.89646 -0.975568 -0.170615 -0.138409
9.3418 5.5219 7.71133 0.928112 -0.0289069 0.371177
3.57872 0.0795663 8.87741 -0.179016 -0.00646224 0.983825
-2.82722 -9.33765 -5.07673 0.140631 -0.987191 0.0753398
-9.46745 -3.60756 -5.39877 -0.989803 0.136121 0.0419734
-5.86917 -9.62522 -6.50601 -0.0113902 -0.994723 -0.101967
-2.37309 7.1759 -9.13025 0.137092 0.271762 -0.95255
8.09495 8.95264 -3.74878 0.522471 0.840255 0.144897
4.44213 7.32767 -9.38667 -0.112137 0.276928 -0.954325
-4.95648 -9.20603 -1.91809 0.0907637 -0.98876 0.118813
-7.56672 -5.64835 9.39892 -0.330412 0.0147385 0.943722
-8.59356 -8.36171 -2.90404 -0.742251 -0.652151 0.154153
-0.0843633 -2.02029 -8.58792 0.0079845 0.167832 -0.985783
-7.05606 1.17388 9.02087 -0.257875 -0.0833155 0.962579
-6.6261 -9.046 8.18794 -0.133935 -0.83879 0.527724
7.8903 8.11178 -8.64158 0.457262 0.5277 -0.715852
-1.9984 7.70592 8.87289 0.129195 0.442286 0.88752
-1.12979 -3.79397 8.96565 0.0843376 0.167323 0.982288
-6.301 -6.8846 -9.55578 -0.0711736 -0.17172 -0.982571
-6.15275 -1.97264 -9.24213 -0.057302 0.119588 -0.991169
0.430326 1.28815 -8.48745 -0.043053 -0.123145 -0.991454
-9.38147 -7.61781 5.81842 -0.938829 -0.344338 0.00554464
8.46996 -6.97539 -8.76407 0.635021 -0.208642 -0.743786
-2.30499 -6.00098 -9.29091 0.13001 -0.0323544 -0.990985
-2.21106 -2.16831 -8.8165 0.156729 0.15471 -0.975449
-8.48508 8.68602 -7.17935 -0.645214 0.719435 -0.257121
-3.18408 -2.17345 -8.98325 0.16927 0.142516 -0.975211
9.05889 4.40444 1.10497 0.987349 -0.137269 -0.0793634
9.1061 7.32414 7.76694 0.869049 0.286282 0.40348
-9.39557 -7.40748 -4.74344 -0.951122 -0.293943 0.0946769
-0.915435 8.44989 -0.493574 0.0919689 0.994481 0.0504938
8.86633 4.13099 8.31763 0.79563 -0.133189 0.59096
4.6476 8.629 -8.68425 -0.10644 0.692688 -0.71334
-8.49699 -1.97335 -8.2645 -0.746024 0.131237 -0.652859
-4.94395 -9.59457 -6.46957 0.0774115 -0.99226 -0.0970988
3.13913 9.25847 -7.12613 -0.145634 0.958348 -0.245684
9.52552 7.12229 5.63654 0.975161 0.220937 -0.0157099
-8.95112 -7.43043 -1.67409 -0.926262 -0.359528 0.113039
-9.19089 -6.23086 -1.56074 -0.992181 -0.072215 0.101796
-3.34243 -3.92429 9.28051 0.147998 0.14061 0.978941
6.83241 9.07947 1.24192 0.199666 0.976044 -0.0864358
6.43657 -5.34602 -9.62259 0.0909154 0.0443348 -0.994871
-5.16903 -9.50842 4.00703 0.0623709 -0.99003 -0.126291
2.28823 -3.3384 9.02669 -0.144302 0.166254 0.975467
4.09008 -4.15935 9.41891 -0.128078 0.125765 0.983758
9.58843 6.62584 5.09889 0.990168 0.123389 -0.0659001
4.84452 4.80835 9.57231 -0.0849957 -0.0873475 0.992545
-9.47729 -4.06901 4.69285 -0.987204 0.125885 -0.0978818
2.13599 8.16684 8.60612 -0.137107 0.60791 0.782079
8.28022 9.03191 6.24162 0.55507 0.829117 0.0668028
-9.10857 -7.3906 2.68157 -0.934475 -0.325205 -0.144906
-9.4459 6.97729 6.98872 -0.960785 0.1949 0.197249
-7.94534 3.17668 8.94085 -0.488211 -0.152264 0.85934
-7.06744 -8.1389 8.98177 -0.22755 -0.519012 0.823922
-0.144511 -6.30559 9.10057 0.0106456 -0.0896212 0.995919
-6.77216 -9.52607 -6.74166 -0.151661 -0.977589 -0.14601
-4.74897 -9.23887 -2.33505 0.104971 -0.985476 0.133484
-9.11961 -4.90673 1.1073 -0.992041 0.0991528 -0.0776059
2.078 1.87172 -8.74969 -0.15579 -0.144266 -0.977198
6.47937 -2.14667 9.23555 0.115052 0.126598 0.985259
-2.56547 -7.18182 -9.15671 0.141331 -0.269838 -0.952477
-4.37379 9.22981 2.58885 0.127421 0.981716 -0.141414
-2.94128 -2.68261 -9.0206 0.163166 0.157587 -0.973932
8.66454 8.65588 4.69301 0.70493 0.701693 -0.103446
8.9148 2.38253 7.73998 0.885371 -0.141832 0.44272
-7.41898 2.0511 -9.00484 -0.347801 -0.129015 -0.928649
-4.44996 -1.17787 9.07116 0.133897 0.0836744 0.987456
8.508 -0.0670971 -1.51122 0.990153 0.00666418 0.139832
-9.29397 -6.26629 2.43464 -0.988209 -0.0745232 -0.133748
8.58718 4.38283 -8.6821 0.683797 -0.121995 -0.719402
9.48681 4.81076 -7.08646 0.97227 -0.0886598 -0.216403
2.06657 5.59162 -9.26197 -0.122663 -0.0236068 -0.992168
4.87648 -9.50908 7.00932 -0.0837885 -0.97638 0.199151
9.30786 7.09244 3.41094 0.96176 0.233308 -0.143475
-7.68858 9.14986 7.29704 -0.379401 0.882439 0.27813
-1.52817 2.66828 -8.80423 0.119007 -0.175721 -0.97722
-7.81652 -6.0192 9.29752 -0.402145 -0.0323167 0.915005
0.149777 0.720363 -8.42207 -0.0157104 -0.0744344 -0.997102
0.140466 0.867548 -8.43395 -0.0146199 -0.088309 -0.995986
8.50335 0.793046 1.23671 0.990045 -0.0774819 -0.117501
-3.76536 -9.31997 -3.76247 0.141645 -0.979724 0.141697
-5.74485 -1.08625 -9.16458 0.00407188 0.0750212 -0.997174
-8.22196 2.54993 -8.63917 -0.61281 -0.148813 -0.776092
-5.6878 -9.1298 -0.460048 0.0122266 -0.999369 0.0333455
-5.58748 4.4138 9.57467 0.0210092 -0.108777 0.993844
8.67998 -0.182213 7.76432 0.867234 0.0144312 0.497692
-1.42913 -1.61715 8.61904 0.124474 0.138273 0.982541
4.39998 -3.08643 -9.30622 -0.121763 0.145522 -0.981834
9.15391 6.05394 1.0209 0.996527 0.0433212 -0.0711204
9.11145 1.61378 4.43335 0.985356 -0.107938 -0.131995
9.05192 6.82464 -0.860366 0.977644 0.200823 0.062313
3.77138 9.0282 1.76108 -0.162298 0.979431 -0.119893
-9.12701 0.349977 5.74106 -0.999664 -0.0254767 -0.00470043
0.19169 0.398698 -8.40397 -0.0203426 -0.0421555 -0.998904
3.1756 1.12591 8.85455 -0.181199 -0.0886081 0.979446
-6.0538 -9.50925 -3.89642 -0.0366327 -0.990956 0.129093
2.41457 -2.1204 -8.84243 -0.163257 0.150322 -0.975064
3.68596 4.02489 -9.34548 -0.141454 -0.134019 -0.980831
-1.09561 -5.42455 9.15711 0.0758023 0.0456407 0.996078
8.0892 4.78334 9.1068 0.49612 -0.0955261 0.862983
4.74861 8.14718 9.06862 -0.0982246 0.516372 0.850713
1.57903 9.15288 -4.80727 -0.104312 0.988957 0.105275
9.08504 7.14837 -1.98791 0.954426 0.271145 0.124704
-7.79588 -9.29691 -6.2103 -0.396913 -0.915872 -0.0603107
5.58572 -9.12442 -0.342949 -0.0261403 -0.999346 0.0249916
-8.8921 3.64473 0.270632 -0.984005 -0.176806 -0.0217789
9.16306 5.49609 1.13424 0.996265 -0.0369004 -0.0780604
-3.736 -1.57993 9.0009 0.16528 0.111242 0.979953
7.53733 -5.37578 -9.40057 0.323317 0.0435532 -0.945288
7.27404 9.46797 5.15294 0.257562 0.964193 -0.0631898
-4.5292 -4.66847 -9.52895 0.104939 0.0973577 -0.989702
-1.73525 -8.69475 1.85204 0.140183 -0.97907 -0.147551
-0.402579 -7.05237 -8.97568 0.0303764 -0.263131 -0.964282
0.211049 4.64881 9.04743 -0.0158795 -0.123167 0.992259
-7.97337 -8.56799 0.693292 -0.57383 -0.817179 -0.0542037
-3.49776 -9.29749 -7.18425 0.14295 -0.956479 -0.254386
-3.97236 2.23836 -9.12304 0.150001 -0.136379 -0.979235
3.25164 3.75421 -9.24167 -0.150347 -0.146732 -0.977684
-8.59799 0.523295 2.00467 -0.984943 -0.0488218 -0.165843
-0.405126 -7.48943 8.82335 0.0313674 -0.39787 0.916906
1.85801 -1.33281 -8.64297 -0.152417 0.115465 -0.981548
-9.4414 7.42831 -6.0185 -0.955222 0.294207 -0.0315223
-8.93406 -1.07776 3.63711 -0.981537 0.0819502 -0.172826
1.26169 1.89567 8.6407 -0.1101 -0.154992 0.981761
-8.93834 -5.18232 8.40347 -0.797246 0.0643001 0.60022
7.29744 7.94573 -9.0249 0.281967 0.459328 -0.842325
-9.27958 -4.93324 -7.77296 -0.915541 0.0829671 -0.393576
-4.29577 0.809798 9.0224 0.145539 -0.0602518 0.987516
-7.76974 -8.6758 -0.100714 -0.499987 -0.865996 0.0079883
-3.11377 9.20992 -3.68541 0.151639 0.976993 0.149967
5.15736 8.59445 8.77827 -0.0668622 0.670546 0.738849
-8.17857 7.79754 -8.64871 -0.549084 0.428532 -0.717543
7.78026 9.12752 7.23668 0.405861 0.874912 0.264209
9.20996 7.27458 3.09194 0.947326 0.284627 -0.146838
-2.98065 8.99149 -7.78605 0.150981 0.885111 -0.440208
-3.98399 -2.88569 -9.21973 0.142898 0.148229 -0.978575
-1.52246 -4.4745 9.10714 0.103072 0.13002 0.986139
-0.363478 0.724193 -8.4281 0.0378482 -0.0745175 -0.996501
1.81004 9.22763 6.0624 -0.11295 0.992668 0.0430366
0.2177 0.963347 8.4443 -0.0224866 -0.096873 0.995043
5.10546 6.51366 -9.60173 -0.0651574 0.104025 -0.992438
-8.31938 5.74027 -9.02344 -0.566735 -0.00416968 -0.82389
8.28442 1.64963 8.4247 0.673302 -0.116272 0.730168
2.98851 -4.93004 -9.34871 -0.142265 0.0868277 -0.986013
9.54897 -6.82825 -6.48803 0.981722 -0.161294 -0.101021
8.55901 2.25915 8.2527 0.758061 -0.141483 0.636652
2.91247 8.85243 1.56137 -0.177385 0.977014 -0.118227
6.42686 8.13778 9.10375 0.097215 0.507902 0.855912
5.84359 7.4351 9.44294 0.00862044 0.295646 0.955259
-8.33144 -4.84136 8.95776 -0.579339 0.0923243 0.809841
-5.11739 -9.6331 -6.0785 0.0636612 -0.997238 -0.0382536
-9.44576 -7.38205 -6.21957 -0.957153 -0.283228 -0.0603273
8.47657 4.7283 -8.8322 0.634279 -0.100822 -0.766502
-5.73528 -9.63789 -5.10468 0.00438602 -0.997904 0.064568
9.45825 7.37558 5.55388 0.959437 0.280816 -0.0249716
-8.4178 8.88582 -6.62051 -0.609083 0.781702 -0.134011
3.88089 3.25683 9.26123 -0.142872 -0.149126 0.978442
-4.60993 -8.77284 -8.527 0.108742 -0.747289 -0.655542
-1.21512 -5.65687 -9.17389 0.0827232 0.0161167 -0.996442
-6.72844 -9.12776 -1.53697 -0.172493 -0.979693 0.102218
-8.72221 -8.20451 -7.62883 -0.741635 -0.554597 -0.377357
6.11415 9.20593 1.6351 0.0519482 0.993095 -0.105182
-8.3412 -8.87935 -4.31945 -0.594356 -0.794486 0.124632
-9.26314 -6.80113 -2.69501 -0.974237 -0.176152 0.140825
8.50769 1.0721 -1.04503 0.989626 -0.102788 0.100371
6.22979 5.42931 -9.64149 0.0592093 -0.0363286 -0.997584
9.48233 6.04599 -3.69199 0.990294 0.0359406 0.134264
-4.10085 -3.56965 -9.33889 0.132023 0.143273 -0.980838
-4.19341 -5.12107 -9.52846 0.119496 0.0658642 -0.990648
-2.51204 -8.75236 -1.3234 0.175399 -0.978556 0.107994
-3.50941 -1.049 -8.90894 0.176422 0.0808754 -0.980986
-8.5165 0.0599195 1.57089 -0.989599 -0.00592025 -0.143735
-9.47351 6.66063 4.01685 -0.982658 0.135089 -0.127021
5.12555 9.53943 -4.28332 -0.0652163 0.991146 0.115655
6.2726 9.6 -4.8136 0.0663824 0.994072 0.0861088
6.06214 9.64846 -6.12154 0.0358593 0.998393 -0.0438825
-7.33827 4.25302 9.36036 -0.282 -0.121443 0.951697
-6.07582 1.59181 -9.20327 -0.0457467 -0.103046 -0.993624
-8.88866 -2.62705 -2.18692 -0.974553 0.166682 0.149879
0.0185898 -9.11569 -5.45729 -0.00136478 -0.999088 0.0426858
-5.39641 -9.52631 7.08734 0.0405613 -0.976057 0.213698
-5.41635 9.11537 -0.205063 0.0476668 0.99875 0.0150331
-8.73809 -8.11026 2.63423 -0.810009 -0.566958 -0.149815
0.97355 3.02749 8.81393 -0.0790294 -0.183399 0.979857
9.31777 -2.71148 -6.42942 0.985022 0.139235 -0.10171
-5.04464 -9.44 7.34728 0.0723966 -0.958389 0.276133
-4.73558 -9.27504 2.60604 0.104079 -0.984755 -0.139371
9.12816 3.87395 -2.3815 0.97821 -0.15219 0.14122
-1.38909 -0.00427886 8.49105 0.131382 0.000429566 0.991332
-5.69153 -7.62983 -9.37674 0.00979707 -0.347708 -0.937552
3.25235 -0.981463 -8.85648 -0.181617 0.0779632 -0.980274
5.3125 -9.10828 0.0419365 -0.0599562 -0.998196 -0.00308677
-6.1465 -9.46821 -7.31829 -0.0493267 -0.962393 -0.267145
2.91114 9.25098 -7.01542 -0.144368 0.964234 -0.222286
5.92306 9.13127 -0.532802 0.0226506 0.999002 0.0384937
-6.49183 -9.24508 2.23133 -0.116845 -0.984704 -0.129248
-4.22577 -0.121978 -8.98729 0.151616 0.00942197 -0.988395
-5.34921 -5.07263 9.62613 0.0440594 0.0673009 0.996759
-8.39232 -8.26488 -1.30478 -0.7294 -0.67722 0.0966909
0.54531 -4.35508 9.01747 -0.0411727 0.142998 0.988866
-2.74933 0.682737 -8.74116 0.18464 -0.0584688 -0.981066
-2.57266 -3.86431 -9.1547 0.145441 0.150471 -0.977857
8.78183 -8.02355 -7.75542 0.764264 -0.495057 -0.413301
0.23824 -2.30443 8.64024 -0.0218458 0.177947 0.983797
-8.20155 -4.16155 -8.95286 -0.54832 0.131312 -0.825895
-9.22277 -6.19574 -1.83091 -0.99134 -0.0650673 0.114069
-5.28552 2.95491 -9.36968 0.0552586 -0.140832 -0.98849
9.23289 5.51674 1.84104 0.992905 -0.0331298 -0.1142
-7.30798 -8.624 8.49869 -0.289903 -0.699446 0.653247
0.338807 -8.4268 0.718871 -0.0353281 -0.996628 -0.0740512
8.884 2.64016 -2.14175 0.974678 -0.167489 0.148153
-0.0302582 2.95471 -8.75981 0.00260566 -0.187807 -0.982203
-7.58647 -9.16744 3.50858 -0.363667 -0.920019 -0.145981
-1.54777 -8.83745 -2.839 0.118256 -0.977045 0.177197
-7.28115 -9.17849 7.63194 -0.273251 -0.891008 0.362545
0.762885 5.10245 -9.11447 -0.0548448 -0.0817432 -0.995143
8.836 1.72533 -2.70559 0.976251 -0.129336 0.1738
-9.64892 -5.41686 6.0639 -0.998647 0.0374359 0.0360965
9.28856 2.34784 6.17428 0.989538 -0.131434 0.05949
0.463786 -2.68934 -8.7188 -0.0405242 0.185195 -0.981866
-8.3437 -0.264074 -8.22441 -0.731373 0.0212207 -0.681647
-9.26696 4.56182 -2.68534 -0.983174 -0.115352 0.14164
1.86714 4.49039 -9.14818 -0.119136 -0.126422 -0.984796
-4.09964 -9.53975 -5.84356 0.122215 -0.992467 -0.0085791
-1.14508 -0.522772 -8.47497 0.111546 0.0525754 -0.992368
-8.5364 1.46566 -0.842191 -0.987745 -0.133767 0.0804112
2.973 3.55651 -9.16787 -0.152877 -0.154436 -0.976103
-8.36961 -8.52558 2.61037 -0.66776 -0.72902 -0.150422
-5.01744 -1.54372 9.16967 0.0871723 0.101745 0.990984
5.60159 9.1831 -1.33429 -0.0232905 0.995713 0.089516
0.757948 -5.09714 -9.11376 -0.0545192 0.0822891 -0.995116
1.17511 8.47431 -8.15314 -0.0883156 0.767009 -0.63553
2.50381 7.08833 -9.17291 -0.139437 0.246659 -0.959018
-7.74037 0.976646 8.73428 -0.479521 -0.0737053 0.874429
-4.69125 -3.18199 9.35369 0.10323 0.143483 0.984254
0.341856 -8.40692 -0.366645 -0.0361194 -0.998597 0.0387181
-8.46351 1.01471 0.567213 -0.993286 -0.100449 -0.0573805
-7.31435 -9.46618 -6.20267 -0.266409 -0.962139 -0.057579
0.543543 -8.96516 4.01729 -0.0419838 -0.98598 -0.161497
3.04358 7.96404 8.90636 -0.152564 0.499096 0.853011
9.57024 4.80076 6.58438 0.989251 -0.087619 0.117073
0.813217 -4.14597 -8.99988 -0.0610824 0.153879 -0.9862
-9.04307 1.44874 4.08313 -0.983048 -0.101542 -0.15266
-9.41006 -5.58416 -3.15505 -0.989814 0.0228766 0.140517
8.37177 7.84569 8.4527 0.618486 0.445071 0.6476
3.55805 -0.468078 -8.8824 -0.178695 0.0376546 -0.983184
1.74449 6.63747 -9.16538 -0.111761 0.150531 -0.982268
3.29204 -4.87269 -9.38741 -0.141943 0.0895662 -0.985814
9.62083 5.0743 5.23909 0.996276 -0.0672926 -0.0539101
8.92189 3.39924 -1.39546 0.978972 -0.175571 0.103872
9.6004 4.70922 -5.43905 0.995059 -0.0925573 0.0359324
-6.1682 -9.60487 6.60592 -0.0509392 -0.991554 0.11927
3.86073 9.19353 2.83384 -0.147816 0.97773 -0.148975
-7.63803 -9.19801 -3.838 -0.371752 -0.917872 0.138968
-1.75302 7.3982 8.97316 0.116554 0.347862 0.930273
-6.46232 2.23272 -9.24868 -0.111157 -0.129173 -0.985372
-2.58404 9.26479 6.69788 0.138505 0.978115 0.155264
1.66144 5.62655 -9.21589 -0.106192 -0.0197056 -0.99415
-8.50477 -8.03993 -0.426237 -0.79612 -0.604187 0.0339181
-9.21353 -6.48284 -7.92265 -0.892606 -0.10591 -0.438221
-6.13324 -9.08294 8.21312 -0.0497654 -0.845978 0.530891
4.70422 -1.86412 9.17367 -0.111546 0.1178 0.986753
2.28377 2.11139 -8.81936 -0.159786 -0.151706 -0.975425
9.10059 4.73158 -8.08984 0.861955 -0.09912 -0.497201
8.4431 7.70901 8.47268 0.641779 0.402909 0.652521
2.05918 -7.43838 -8.99863 -0.129456 -0.35356 -0.926411
9.20115 4.22615 -7.76392 0.907075 -0.125593 -0.401797
-1.76014 -7.53618 -8.91874 0.117841 -0.391498 -0.912602
7.66284 -4.77863 9.30995 0.363125 0.0936454 0.927023
4.92724 9.07708 -0.00273703 -0.0996961 0.995018 0.000203852
-9.44537 3.91927 -6.76402 -0.979105 -0.130665 -0.155818
-9.52104 -4.3906 4.7442 -0.989349 0.111884 -0.0931126
7.99417 6.66987 9.15097 0.463514 0.141087 0.874785
-8.97589 -4.37995 8.21713 -0.827482 0.120959 0.548309
5.85248 -9.14937 0.869722 0.0116355 -0.998048 -0.0613499
-9.34253 -6.75507 7.51883 -0.93375 -0.153896 0.323153
-0.57575 0.06988 8.41137 0.0602595 -0.0073862 0.998155
-9.05398 -4.41113 1.02999 -0.987724 0.137272 -0.0745512
5.93251 2.75862 9.35455 0.0215746 -0.138639 0.990108
-3.57985 2.32604 -9.07283 0.161396 -0.142715 -0.976516
6.4945 9.1249 8.08746 0.108918 0.863857 0.491822
-9.63591 -6.12591 6.2981 -0.996596 -0.0446393 0.0693088
3.53606 -0.820796 8.89682 -0.17743 0.0645762 0.982012
8.64559 -2.34783 -0.0466044 0.983754 0.179472 0.00426809
-8.74025 -6.69942 -8.57264 -0.729522 -0.14998 -0.66731
-2.81557 -9.25046 4.2788 0.145183 -0.980763 -0.130484
-0.742698 1.73583 8.56789 0.0699173 -0.151141 0.986037
7.80283 -8.19901 -8.62971 0.430415 -0.556338 -0.710796
5.17066 9.27084 -2.29344 -0.0691693 0.989027 0.130545
9.25922 7.36513 -3.59358 0.943377 0.29947 0.142677
-1.0422 -9.15522 -5.47303 0.0724644 -0.996573 0.0398777
5.45549 6.37067 9.63257 -0.0338882 0.0803671 0.996189
-0.149578 -3.33511 8.83301 0.0124051 0.184421 0.982769
-6.65056 -7.93422 -9.18492 -0.136914 -0.443983 -0.885513
-8.06015 -1.87472 8.64223 -0.576106 0.126313 0.807556
1.89282 -3.59237 9.0148 -0.127433 0.166069 0.977846
9.51413 4.75377 -6.92696 0.978895 -0.0918168 -0.182576
9.64099 -6.13536 -5.30055 0.997783 -0.0458988 0.0481952
-1.77389 -5.07398 9.19937 0.112384 0.0808058 0.990374
9.55156 4.26033 6.12212 0.992198 -0.116052 0.0455501
4.44327 1.25012 9.07654 -0.133885 -0.0880571 0.987077
8.18616 8.85389 -3.53074 0.56209 0.813323 0.150205
-7.6877 4.41507 9.25857 -0.375544 -0.115846 0.919536
5.76713 -8.85008 8.54577 -0.000810573 -0.761188 0.648531
-8.65444 -2.38581 -0.208273 -0.983432 0.180285 0.0189545
7.48138 9.41599 5.30992 0.308783 0.949831 -0.0497425
5.83081 -9.33211 2.58619 0.00765708 -0.990668 -0.136083
-2.71641 -6.83398 -9.26018 0.141309 -0.183132 -0.97288
1.74402 -8.58205 -0.907754 -0.150398 -0.985049 0.084012
-2.73089 1.08996 8.76866 0.181194 -0.0898419 0.979335
5.58012 9.65476 6.03373 -0.0211757 0.999262 0.0320436
-6.14915 1.25517 -9.16745 -0.058924 -0.0852857 -0.994613
-4.15997 0.19163 -8.97793 0.155191 -0.0148511 -0.987773
2.78295 8.99929 2.71391 -0.161698 0.973779 -0.160025
2.21721 9.18045 4.39365 -0.132381 0.982702 -0.129507
9.39183 6.89501 3.69581 0.973105 0.184974 -0.137296
-6.14512 -9.42505 3.31139 -0.0514521 -0.988811 -0.14002
6.88405 9.30337 -7.56373 0.180592 0.924009 -0.337036
7.93202 9.21982 -5.09195 0.440758 0.894827 0.0708265
-8.84933 -7.41136 0.0787803 -0.927783 -0.373071 -0.00612008
4.46278 7.01224 -9.46723 -0.109326 0.202782 -0.973102
5.67623 0.380713 9.12722 -0.0138534 -0.0276887 0.999521
0.180719 -1.68579 -8.53505 -0.017638 0.150652 -0.98843
-8.52781 -0.505441 -1.5627 -0.988632 0.049206 0.142076
4.58959 0.130806 9.0389 -0.127735 -0.00988581 0.991759
-8.40446 -8.71076 3.65628 -0.638667 -0.754976 -0.148712
-8.58406 -8.17113 -2.02809 -0.778194 -0.61375 0.133135
-1.10218 -6.03721 -9.16062 0.0761124 -0.0404284 -0.996279
5.78605 9.1308 0.474531 0.00183532 0.999408 -0.0343662
-1.94149 8.88405 7.66645 0.126647 0.893731 0.430355
-6.63966 -6.05026 9.6058 -0.125029 -0.0346753 0.991547
5.42504 0.838352 9.13965 -0.0460111 -0.0594548 0.99717
-2.87237 -7.23332 9.18829 0.145727 -0.277798 0.949522
8.37842 8.19171 0.398679 0.744521 0.666837 -0.031881
9.04665 -4.25421 1.21542 0.985522 0.145554 -0.0869521
-4.56337 -9.20546 2.24376 0.118709 -0.98411 -0.132044
-3.15471 0.131148 8.79869 0.186806 -0.0110657 0.982335
-6.48296 -0.914012 9.11126 -0.123319 0.0649787 0.990237
-0.0663022 2.44137 -8.66288 0.00601333 -0.181853 -0.983307
-5.41665 -9.57 -6.86635 0.0382224 -0.985112 -0.167609
-0.809894 -8.79336 7.60056 0.0615602 -0.89977 0.432
3.20493 -4.26217 -9.3063 -0.146239 0.127906 -0.980946
5.26533 3.95737 -9.50771 -0.0539154 -0.127662 -0.990351
5.44491 9.50623 7.18283 -0.0359586 0.971337 0.234969
-0.421053 -7.70803 8.71783 0.0330001 -0.475195 0.879262
8.87217 3.46576 -0.617418 0.98236 -0.180293 0.0496386
4.29191 -9.34425 -3.43547 -0.124567 -0.981712 0.14396
-1.01373 -8.57549 -1.63599 0.0935831 -0.985242 0.143319
-5.55701 -9.12297 0.316383 0.0299245 -0.999286 -0.0230824
-9.22725 -5.13903 1.96801 -0.990027 0.0736869 -0.12007
4.1478 9.5376 -6.13326 -0.120681 0.991559 -0.0473925
7.47009 -5.03388 -9.4016 0.307611 0.0737439 -0.94865
-2.20429 -9.12848 4.03922 0.134753 -0.979828 -0.147579
1.78899 1.23552 8.62121 -0.149892 -0.10927 0.982646
-6.25303 -9.55132 4.32097 -0.0646555 -0.991421 -0.113592
5.94582 6.1888 9.64848 0.0207904 0.053235 0.998366
4.18188 -4.16979 -9.43201 -0.124314 0.124744 -0.98437
-9.10396 -5.24425 0.053456 -0.997702 0.0676361 -0.00394073
8.60148 0.218853 2.0879 0.985155 -0.0205237 -0.170438
4.11567 7.39352 9.32543 -0.127617 0.298282 0.945908
8.69787 7.78071 -0.799757 0.865237 0.497582 0.0614613
-3.687 5.42229 9.47928 0.134492 -0.0394003 0.990131
8.71542 -1.3144 2.30871 0.979268 0.109507 -0.170421
0.301607 7.24443 -8.91441 -0.0230947 0.319533 -0.947294
-0.658507 3.15631 -8.81668 0.0543052 -0.184904 -0.981255
2.40415 9.11338 -3.75921 -0.14289 0.977414 0.155704
0.94611 8.18957 -8.41896 -0.072909 0.656346 -0.750929
-2.78308 0.356226 -8.73263 0.186548 -0.030987 -0.981957
-3.88308 -9.41448 4.3456 0.133961 -0.983857 -0.118661
1.37402 9.03601 -4.08629 -0.0973224 0.983404 0.153119
9.40034 6.8372 -7.28819 0.949536 0.168337 -0.264658
8.72957 -7.72989 -0.844486 0.876002 -0.477979 0.0644787
-7.97244 -4.09339 -9.0797 -0.471253 0.132702 -0.871958
-4.06232 -0.801316 -8.9859 0.158162 0.0605975 -0.985552
-5.93296 -2.61836 9.33503 -0.0218362 0.136688 0.990373
-0.544611 2.50235 8.68748 0.0482711 -0.181746 0.98216
-1.98799 6.16343 9.24336 0.120181 0.059027 0.990996
-3.63595 -6.80314 -9.39992 0.138046 -0.166297 -0.976365
8.60204 -8.30446 -2.7042 0.754612 -0.638369 0.151807
-7.04929 -9.53796 -5.49173 -0.205198 -0.978229 0.0310182
-3.93197 -3.26014 9.26915 0.141122 0.148643 0.97877
-7.89889 -9.26351 5.8786 -0.426918 -0.904191 0.0133899
3.81516 9.45809 -4.8424 -0.133222 0.987081 0.0890082
5.39306 4.18827 9.54263 -0.0412578 -0.119105 0.992024
-5.48466 1.35267 -9.18116 0.0379346 -0.0906395 -0.995161
-8.47525 -8.07787 0.422844 -0.784139 -0.61967 -0.0336932
7.18169 4.24851 9.40274 0.243468 -0.120662 0.962374
9.32391 4.46621 -7.53227 0.937119 -0.112103 -0.330516
9.54406 5.75071 4.1327 0.992653 -0.00272071 -0.120967
8.28345 9.00371 -6.4877 0.558992 0.822022 -0.108663
-5.75405 -3.70723 -9.48919 0.00237612 0.133739 -0.991014
-8.99349 -6.97755 0.341868 -0.969705 -0.242918 -0.02575
-0.60329 -8.4991 -1.30963 0.0595865 -0.990485 0.12405
-8.97175 -2.70111 2.62907 -0.973776 0.161866 -0.159873
1.22314 -0.0989787 -8.47061 -0.118811 0.0100632 -0.992866
-9.07231 -3.43263 -2.48644 -0.975525 0.162421 0.148225
7.38827 8.23087 8.81194 0.309504 0.558314 0.769735
8.50107 8.16798 1.48106 0.767402 0.632186 -0.10693
-2.35794 -3.12256 -9.00021 0.148763 0.167279 -0.974622
-8.73605 -8.01975 -7.84102 -0.748844 -0.495498 -0.44013
-3.51889 -4.19218 -9.3436 0.14346 0.128556 -0.981271
7.37317 -1.86409 -8.99655 0.337915 0.121296 -0.933328
5.1 8.71644 8.65459 -0.0720142 0.716684 0.69367
-4.79184 6.29594 9.5965 0.0875813 0.0699594 0.993698
8.97451 3.06927 -2.24884 0.974723 -0.168857 0.146295
0.352965 -8.73872 -2.81563 -0.0306073 -0.981924 0.186786
9.02275 -2.27813 7.45769 0.925047 0.136724 0.354393
-8.97881 2.98348 2.37408 -0.974295 -0.167273 -0.150894
-5.78141 -9.63828 -5.10948 -0.000918557 -0.997938 0.064185
-9.12629 7.91338 -4.19873 -0.884107 0.44945 0.127866
7.7553 9.32755 5.70049 0.383568 0.923471 -0.00880972
8.86578 2.81741 -1.7991 0.975908 -0.17398 0.131664
-3.57096 -1.24136 8.93699 0.173266 0.0930403 0.980471
9.01411 1.50574 7.19246 0.951057 -0.10299 0.291347
-6.85103 2.76303 9.26374 -0.186351 -0.141983 0.97217
6.26196 3.94608 -9.50483 0.0672248 -0.127992 -0.989494
-1.91043 -8.65536 1.36816 0.154569 -0.980991 -0.117325
-2.07412 2.82714 8.90633 0.143316 -0.170513 0.974877
-9.24044 1.87213 5.85111 -0.993269 -0.115319 0.0109011
1.17358 4.00798 9.00493 -0.0857839 -0.158323 0.983654
7.9869 4.24294 -9.09409 0.472567 -0.126365 -0.872188
8.88306 -6.33135 -8.47165 0.776614 -0.0820134 -0.624615
1.07807 8.61902 -7.94538 -0.0813317 0.827759 -0.555157
-3.44581 9.45295 -5.70107 0.138279 0.990354 0.00886067
8.99784 4.12317 -0.837686 0.985922 -0.15493 0.0628873
-1.77344 -2.95601 8.88715 0.128816 0.174935 0.976117
5.70559 -9.65852 5.5777 -0.007679 -0.999741 -0.0214033
5.93431 5.98561 -9.6567 0.0192987 0.0257879 -0.999481
-9.61147 -5.20093 -4.97326 -0.995532 0.0573269 0.0750253
7.81905 8.3816 -8.46141 0.436709 0.62157 -0.650336
5.8669 5.61723 -9.65904 0.0110099 -0.0172599 -0.99979
-6.36854 1.36947 9.16035 -0.0984043 -0.0921344 0.990872
8.80738 0.960826 2.99797 0.979882 -0.0783197 -0.183566
-9.44738 -3.40384 -5.75203 -0.990322 0.138763 0.00266833
8.70243 8.35692 -7.41666 0.73061 0.604068 -0.318295
-2.91557 -7.04362 -9.24504 0.144593 -0.228998 -0.962628
-1.71087 -4.61918 -9.14591 0.111536 0.118811 -0.986632
0.997737 -3.44568 8.89328 -0.0777741 0.178248 0.980907
-6.18812 -3.44504 -9.44153 -0.057583 0.138747 -0.988652
6.65412 -9.0593 -0.305786 0.162693 -0.986415 0.022708
-4.53342 3.35156 -9.36113 0.112096 -0.143295 -0.983311
1.01654 -5.44989 9.15241 -0.0708895 0.0427359 0.996568
-7.00338 3.69557 9.36983 -0.208803 -0.137963 0.968177
-8.11227 -9.06581 6.77654 -0.504349 -0.847917 0.163306
7.38303 9.45301 5.45666 0.282945 0.958492 -0.0351383
4.45935 4.67504 -9.52205 -0.108665 -0.0972298 -0.989312
-9.41825 -3.48391 -4.91116 -0.986489 0.139689 0.0855993
-2.70193 -1.36633 -8.79145 0.178013 0.108807 -0.977994
0.278016 -8.97364 4.12274 -0.0215562 -0.987359 -0.157026
9.21766 -1.74969 6.12762 0.992422 0.110448 0.0538491
-9.06988 -0.122071 -4.85245 -0.994281 0.00911241 0.106402
-0.423929 -8.44142 0.857823 0.0436944 -0.995255 -0.0869329
-8.23339 -7.72891 -8.64607 -0.566942 -0.407821 -0.715723
-6.34724 9.55201 -6.88603 -0.0783576 0.981946 -0.17217
0.796408 -6.54976 9.09518 -0.0573233 -0.137916 0.988784
-0.695834 -0.709077 -8.4452 0.0708825 0.0721906 -0.994869
9.22643 1.86768 5.30729 0.991657 -0.115672 -0.0568953
-3.89496 2.54072 -9.15467 0.149744 -0.144551 -0.978101
8.74148 -1.9744 -7.93467 0.841121 0.129806 -0.525039
9.24274 7.93915 5.5929 0.897908 0.439661 -0.0214102
-6.52326 -2.49527 -9.27691 -0.120899 0.135971 -0.983308
5.47601 9.62823 6.42942 -0.0319144 0.995465 0.0896187
9.17525 3.80718 7.68166 0.911996 -0.140191 0.3855
8.5434 1.5458 -8.12663 0.781947 -0.110398 -0.613491
7.32429 8.8838 -0.173289 0.344775 0.93859 0.0133746
2.14637 9.09957 3.90293 -0.134094 0.978986 -0.15364
5.34424 -9.46087 -3.57769 -0.0474844 -0.989464 0.136771
2.30544 9.13821 -4.01033 -0.137974 0.97935 0.14777
-9.40309 -3.63099 6.78008 -0.977153 0.138021 0.161625
3.30288 3.34557 -9.18649 -0.154109 -0.154125 -0.975959
5.48706 -9.63573 -6.34337 -0.0307588 -0.996624 -0.0761223
-3.66002 -0.343642 8.89668 0.17615 0.0275531 0.983978
6.8665 9.38642 -3.62 0.179703 0.973891 0.138719
4.45739 -6.69099 -9.52227 -0.10822 -0.13797 -0.984506
7.77202 -0.111229 8.67459 0.500825 0.0088224 0.865504
8.38883 6.57272 -8.9159 0.597829 0.124783 -0.791852
8.43412 -7.15211 8.73992 0.62589 -0.250195 0.738691
8.09464 8.7828 -2.81719 0.554236 0.818329 0.152185
8.15992 9.00582 6.92117 0.523256 0.829691 0.194464
-8.6771 -8.40787 3.50245 -0.748396 -0.645678 -0.151668
9.22415 -1.99822 5.05259 0.989223 0.121494 -0.0817173
9.14922 4.85952 1.49058 0.989845 -0.101428 -0.0995968
-9.54135 -5.1957 -4.26201 -0.991429 0.0592986 0.116414
-1.1823 -7.36103 -8.92475 0.0853151 -0.346814 -0.934046
-9.42178 -5.71965 3.22336 -0.990102 0.00671087 -0.140189
2.84788 3.12939 9.07863 -0.157051 -0.161063 0.974368
7.72578 8.99367 2.81999 0.425028 0.892764 -0.14941
4.83823 9.57166 -6.59984 -0.085142 0.989159 -0.11965
2.63753 1.59944 -8.80756 -0.174423 -0.12341 -0.976907
-7.29974 -5.94629 9.48063 -0.262111 -0.0216696 0.964794
-8.55342 -1.74909 -0.456826 -0.987184 0.153446 0.0438506
2.14962 -2.01496 8.78271 -0.156626 0.149682 0.97625
-4.44592 9.31513 -3.10855 0.119019 0.98222 0.145187
7.39807 9.45244 -5.58899 0.286387 0.957879 0.0211977
0.303178 -8.95452 -7.11731 -0.023042 -0.95917 -0.281889
8.74371 2.80827 0.519473 0.981524 -0.186042 -0.0447143
6.95605 7.74366 9.21678 0.197952 0.389853 0.899349
9.12783 4.56624 -1.60614 0.986609 -0.123259 0.106814
-9.17129 -7.34084 -2.97643 -0.940954 -0.304865 0.147183
-1.32787 -3.8285 -8.98973 0.0964096 0.164437 -0.981665
2.64631 -9.17537 -7.15805 -0.142527 -0.954443 -0.262153
9.24923 1.96549 5.96595 0.992503 -0.119038 0.0276992
3.83144 8.23959 8.87111 -0.143477 0.571622 0.807875
-5.35299 -9.13588 -0.836115 0.0545083 -0.996746 0.0593837
9.48817 7.10305 -6.55538 0.969045 0.219073 -0.113841
-5.8539 -5.96738 9.6583 -0.00944829 -0.0234518 0.99968
-5.00162 0.0330047 9.08431 0.0926889 -0.00245123 0.995692
-9.02563 -4.23586 0.989845 -0.986307 0.148025 -0.0727143
0.275712 8.82851 -3.29913 -0.0228754 0.982516 0.184767
0.673185 8.44718 -0.756848 -0.0685508 0.994688 0.0767898
-2.46647 3.11354 -9.0154 0.15152 -0.165927 -0.974428
-9.41776 -3.35261 -5.14521 -0.987842 0.14034 0.0668764
2.04537 -1.44985 -8.68694 -0.159607 0.121215 -0.97971
-2.45295 0.736659 -8.68946 0.179485 -0.0647044 -0.98163
-1.23024 -9.0312 4.14301 0.0884807 -0.984503 -0.15141
-7.27714 -9.30198 -3.70169 -0.274566 -0.951364 0.139717
9.60845 5.3833 6.58792 0.992387 -0.0410329 0.116124
4.89114 9.61604 -5.43352 -0.0806228 0.996085 0.0362643
9.42643 5.5693 -3.27305 0.989848 -0.0243963 0.140021
-5.04457 9.56232 -4.54071 0.071033 0.992132 0.103097
8.89183 8.4163 -4.81842 0.786449 0.610418 0.0942726
-1.84906 -7.54622 8.92612 0.121894 -0.392658 0.911571
5.84711 -0.205244 -9.12376 0.0109813 0.0150026 -0.999827
-8.2166 -8.38268 0.812761 -0.670485 -0.73921 -0.063399
-9.03293 2.4988 3.18716 -0.974592 -0.151333 -0.165133
-6.56207 -2.87293 -9.32552 -0.125327 0.141465 -0.981978
7.58481 9.33932 -6.62142 0.339724 0.931661 -0.128821
-8.52769 -8.40429 2.77381 -0.722481 -0.674256 -0.152972
-1.08035 -8.03482 8.55642 0.0817758 -0.590389 0.802966
-3.25771 -1.89884 -8.95756 0.171998 0.131172 -0.976325
-8.32985 -8.56307 -2.61948 -0.65182 -0.74329 0.150503
1.53262 -3.01132 -8.86697 -0.115561 0.177818 -0.977255
-0.854898 4.49234 -9.05292 0.0626344 -0.132776 -0.989165
9.16364 1.41842 -6.38173 0.990388 -0.0948194 -0.100698
7.37668 9.18296 3.12574 0.311727 0.938632 -0.147633
-7.10582 -0.420782 -8.96123 -0.278104 0.0318209 -0.960024
-3.80499 -3.35305 -9.26475 0.144288 0.148965 -0.978259
-9.20849 -5.27736 -1.72545 -0.992122 0.0605762 0.109655
4.74606 9.23986 -2.3446 -0.105122 0.985424 0.133748
-7.86576 -9.24159 -4.9732 -0.421341 -0.903341 0.0802882
2.88389 6.71608 -9.30503 -0.142319 0.155968 -0.977455
9.23686 1.84252 -5.681 0.993389 -0.114117 0.012453
5.43798 9.33483 2.65524 -0.040307 0.98968 -0.137512
-1.91004 -8.57258 0.26844 0.162467 -0.986382 -0.0255842
2.73708 -3.30561 9.0901 -0.153874 0.161131 0.974864
8.31666 8.64193 -2.95175 0.632807 0.758777 0.154315
-3.48414 7.26567 9.27283 0.143769 0.275232 0.950567
-9.06888 -8.11494 -4.59102 -0.854352 -0.50827 0.108374
-5.6683 -8.98418 8.37396 0.0129831 -0.810037 0.586235
8.2546 -7.18095 8.87009 0.561869 -0.256052 0.786601
-4.59877 -7.79565 -9.23481 0.106077 -0.404936 -0.908171
9.26171 7.30129 3.48007 0.947762 0.284572 -0.144105
5.3577 -6.35315 9.63017 -0.0431732 -0.07775 0.996038
-5.48792 -9.29743 2.36658 0.0354105 -0.99066 -0.131676
4.34223 -0.141157 9.00494 -0.144647 0.0108193 0.989424
-6.33924 -9.11128 -0.630985 -0.0954269 -0.994389 0.0456516
-9.45252 -7.15649 4.62626 -0.967063 -0.233725 -0.100808
-9.09974 -6.43226 0.591956 -0.992544 -0.114029 -0.0430467
2.62513 -4.62344 9.26545 -0.140343 0.111773 0.983774
1.74166 6.68528 9.15747 -0.111843 0.16095 0.980605
5.32015 8.04071 9.17946 -0.0503243 0.473645 0.879277
-5.9076 -5.84803 -9.65954 -0.0159714 -0.00874175 -0.999834
-5.13654 -2.13162 9.2474 0.0731856 0.125823 0.989349
-2.0589 4.20126 -9.13286 0.128567 -0.141413 -0.981567
8.97195 0.703712 7.11178 0.959156 -0.0523816 0.277986
-8.44732 -0.234685 8.10473 -0.77451 0.0188321 0.632281
-8.13052 -6.68134 -9.07217 -0.508956 -0.1443 -0.848611
9.4611 5.48888 -7.35917 0.960373 -0.031791 -0.276897
-9.25716 -5.30325 -2.1223 -0.990545 0.0564509 0.125032
9.03186 -1.81428 7.25094 0.945672 0.118297 0.302837
-7.87744 -3.89019 -9.09775 -0.445009 0.139259 -0.884632
0.931383 9.04436 -4.39325 -0.0681502 0.987953 0.138944
8.94244 4.61064 -8.31281 0.809452 -0.108067 -0.577157
-8.1977 -7.28991 8.87276 -0.544349 -0.283126 0.789635
0.67152 8.52919 1.50461 -0.064922 0.98838 -0.137445
-6.48916 -8.13308 9.09906 -0.108202 -0.507073 0.855084
-5.85526 -9.65114 -6.16395 -0.00963117 -0.998717 -0.0497073
-3.79798 -1.3797 8.98979 0.165081 0.0996804 0.98123
2.53506 8.44158 -8.4409 -0.148996 0.699348 -0.69908
-2.37288 -8.80173 1.89558 0.165157 -0.976044 -0.141639
-2.04739 -3.55313 -9.02882 0.133998 0.165253 -0.977106
-5.53869 -9.62954 5.02574 0.0256502 -0.997164 -0.070757
-0.309905 3.38366 -8.84518 0.025486 -0.183217 -0.982742
-3.09635 -0.621103 -8.80334 0.185566 0.0516471 -0.981274
-8.77098 -4.75456 -8.55195 -0.743254 0.0991388 -0.661623
-8.7547 1.47896 7.79699 -0.865943 -0.105197 0.488954
6.60058 -9.60493 5.33684 0.118402 -0.991928 -0.0453807
7.85629 -2.64781 -8.89791 0.474455 0.148271 -0.867703
9.62674 5.50982 4.99777 0.996931 -0.0286079 -0.0728766
-9.00663 -3.57626 1.85095 -0.977912 0.166934 -0.125779
9.64763 6.10734 -6.09963 0.998282 0.0419537 -0.0409064
8.55052 8.14839 -1.71087 0.778308 0.616495 0.119041
0.937845 -1.54708 8.55579 -0.088021 0.138427 0.986453
-7.5674 -9.38811 -5.3338 -0.331654 -0.942194 0.0477047
8.87221 7.68039 1.90556 0.89114 0.436093 -0.125266
6.50948 7.51765 -9.37714 0.108171 0.320348 -0.941104
9.09704 7.64096 3.21172 0.909734 0.387309 -0.149588
-6.52996 9.08817 -0.607048 -0.134383 0.989941 0.0442485
8.48938 8.37637 2.46465 0.721343 0.676718 -0.147371
-3.37146 2.8188 -9.11383 0.159346 -0.153974 -0.975141
5.65116 4.78835 9.61289 -0.0138542 -0.0873917 0.996078
-8.95925 0.0373121 4.05199 -0.986972 -0.0029191 -0.160869
9.20939 -2.94664 -3.85161 0.977737 0.1498 0.146938
-9.41734 7.07186 -4.15623 -0.967828 0.218978 0.123922
-8.64446 -0.750575 -7.86394 -0.84598 0.0581518 -0.530034
-3.81293 9.49578 5.41184 0.131521 0.990499 -0.0401788
-0.24351 -3.7943 8.91803 0.0193706 0.171773 0.984946
6.03722 -9.46559 3.5674 0.0349554 -0.990002 -0.136654
-3.44621 -3.19041 -9.18463 0.154004 0.153853 -0.976019
-1.60958 -5.00608 -9.17554 0.10504 0.0879103 -0.990575
-9.57107 6.87999 -6.01823 -0.984947 0.170113 -0.0306707
-8.97535 -3.45748 7.97164 -0.859604 0.149913 0.488474
-8.58106 -8.56983 3.76472 -0.701624 -0.697357 -0.146345
-9.49407 -7.25607 -5.80668 -0.967837 -0.251546 -0.00400357
5.95985 2.30768 9.29247 0.0262176 -0.130034 0.991163
