# x y Mean_Curvature nx ny
5.11236 4.02953 1.93402 0.200066 0.157691 0.967009
3.045 3.20638 1.22861 -0.543371 -0.572168 0.614306
4.99911 1.5805 1.85121 -0.360889 -0.114098 0.925603
-2.12109 -7.64994 -0.49194 -0.258979 -0.934039 -0.24597
4.64274 4.96584 -1.83384 0.272539 0.291506 -0.916922
0.262457 7.80895 0.843638 0.0304561 0.906168 0.421819
1.18074 3.8573 -0.367047 -0.287727 -0.939964 -0.183524
-5.98269 -0.15451 -1.99994 0.00765325 0.000197654 -0.999971
-5.35099 -0.716405 -1.90748 0.297975 0.0398938 -0.95374
3.95472 0.802585 0.374309 -0.962706 -0.195375 0.187154
2.10668 4.89215 1.88317 -0.133196 -0.309309 0.941587
3.93298 -3.51845 -1.86479 -0.269382 0.24099 -0.932393
-3.23372 -7.06898 0.924485 -0.368882 -0.806386 0.462242
-4.97991 -4.08412 1.95089 -0.170289 -0.139658 0.975447
5.92769 4.61455 -1.30903 0.596587 0.464427 -0.654517
-5.00686 -4.31494 1.90482 -0.230904 -0.198994 0.95241
-2.14138 -3.41091 -0.329823 0.524426 0.835333 -0.164911
-7.37461 -3.09622 -0.084559 -0.921208 -0.386768 -0.0422795
1.52936 4.49656 1.56087 -0.201328 -0.591938 0.780434
3.32946 2.70586 -1.03782 -0.663379 -0.53913 -0.518909
-5.47753 -5.45031 -1.00839 -0.612169 -0.609127 -0.504196
-3.89812 -6.72154 -0.930993 -0.444014 -0.765614 -0.465496
6.08362 4.61344 1.15177 0.651409 0.493988 0.575883
1.76 -4.33432 -1.5008 -0.248681 0.61242 -0.7504
7.03716 1.76992 -1.55616 0.609191 0.153218 -0.778082
5.42228 -1.7258 -1.97588 -0.147558 0.0469648 -0.987938
7.56729 -2.52009 0.309665 0.93733 -0.312154 0.154833
5.17432 1.35443 -1.89097 -0.315058 -0.0824697 -0.945483
-6.34591 -2.51234 1.82186 -0.383595 -0.151865 0.910929
-3.84604 -3.43447 1.81334 0.314648 0.280977 0.906669
5.83965 4.74658 -1.29352 0.591845 0.481063 -0.64676
5.95401 5.21304 -0.581301 0.719891 0.630301 -0.290651
6.78918 3.3535 1.23615 0.704826 0.348147 0.618073
4.06993 1.94663 -1.33581 -0.671399 -0.321128 -0.667907
-2.02585 -3.53703 0.546482 0.478093 0.834726 0.273241
5.04455 4.58976 1.82414 0.303289 0.275945 0.912069
-5.15644 -4.40262 -1.84152 -0.296698 -0.253324 -0.920759
1.07973 -4.99163 1.7896 -0.0943905 0.436373 0.894801
-4.26197 -3.86884 1.98507 0.0903094 0.0819791 0.992534
6.55871 3.18555 1.52719 0.580811 0.282098 0.763596
-2.4304 3.36697 -0.766007 0.540654 -0.749 -0.383003
-1.66386 -3.89713 0.945218 0.346035 0.810494 0.472609
0.960567 4.25104 -1.14216 -0.180928 -0.800707 -0.571081
2.27229 3.43192 0.671197 -0.520047 -0.785445 0.335599
4.48908 1.03274 1.43448 -0.67909 -0.156229 0.717238
0.0518417 -7.97188 -0.333193 0.00641206 -0.986004 -0.166596
7.52116 1.82712 0.986255 0.84537 0.205366 0.493127
-6.62639 2.46176 1.6904 -0.500993 0.186124 0.845201
4.7787 -3.57927 -1.99978 -0.0117952 0.00883468 -0.999891
6.81411 -2.39162 1.58355 0.576346 -0.202286 0.791774
-1.83285 -7.02673 1.5517 -0.15924 -0.610493 0.775849
6.50202 3.13387 -1.58645 0.548538 0.264387 -0.793225
-2.52049 3.47903 -1.04725 0.499831 -0.689916 -0.523627
-3.07356 -5.46928 -1.98118 -0.067053 -0.119318 -0.990589
2.36268 3.6086 1.07468 -0.461971 -0.705585 0.537338
3.168 6.76947 -1.35169 0.312406 0.667559 -0.675846
-1.38324 -7.82449 -0.462391 -0.169368 -0.958052 -0.231196
-6.05857 -5.15039 -0.435966 -0.74358 -0.632117 -0.217983
2.85171 -2.82712 0.249107 -0.704632 0.698556 0.124553
4.54143 1.22414 1.52287 -0.625901 -0.168711 0.761435
5.14664 2.49916 1.98049 -0.125335 -0.0608617 0.990246
-4.05907 -1.94907 1.32601 0.674845 0.324045 0.663007
4.06182 0.014945 0.493537 -0.969068 -0.00356556 0.246768
-1.6972 -4.28075 1.43309 0.257087 0.648436 0.716545
-5.63445 -1.33217 1.98892 0.102283 0.0241829 0.994461
-3.51009 -1.99292 0.379812 0.853786 0.484752 0.189906
-2.16878 -5.43143 1.99425 0.028104 0.0703828 0.997124
3.98558 0.661636 -0.39863 -0.966706 -0.16048 -0.199315
5.40019 -0.348329 -1.91143 -0.293681 0.0189434 -0.955716
0.44822 4.01318 -0.388676 -0.108881 -0.974873 -0.194338
-2.43272 -5.59686 1.99736 -0.0204695 -0.0470933 0.998681
-6.36215 -3.17746 1.66271 -0.497185 -0.24831 0.831354
-6.71735 -2.62894 1.58981 -0.565005 -0.221123 0.794905
-4.47042 -2.1295 1.70326 0.473199 0.22541 0.85163
1.25704 -4.7428 1.67463 -0.140068 0.528476 0.837314
-5.16203 -4.9567 1.63172 -0.417094 -0.400503 0.815861
5.79271 -0.114928 -1.98935 -0.103053 0.00204458 -0.994674
1.17461 3.93164 0.634612 -0.271463 -0.908639 0.317306
7.64809 2.17986 0.432487 0.938946 0.267619 0.216243
6.88301 2.84138 -1.38125 0.668494 0.275961 -0.690624
3.23154 2.3646 -0.130689 -0.805298 -0.589258 -0.0653447
5.00634 1.81152 -1.88229 -0.31783 -0.115005 -0.941147
-3.60254 -3.06702 -1.54607 0.483026 0.411223 -0.773034
-3.00968 3.73867 1.59967 0.37638 -0.467545 0.799837
5.1552 6.09989 0.231694 0.64114 0.75863 0.115847
-3.75275 -1.42513 0.238223 0.928204 0.352491 0.119111
1.92833 3.96509 -1.21208 -0.347883 -0.715328 -0.606038
2.58977 -3.309 -0.875796 -0.554092 0.707975 -0.437898
5.26506 2.45536 1.9909 -0.0863508 -0.0402696 0.995451
6.1305 4.11123 -1.44628 0.573651 0.384701 -0.723138
-4.02468 -0.197578 -0.342387 0.984052 0.0483088 -0.171193
-0.362588 3.99086 0.170729 0.0901515 -0.992263 0.0853645
0.712676 -3.93831 0.0953056 -0.177865 0.9829 0.0476528
-4.15024 2.92148 -1.77344 0.378037 -0.266112 -0.88672
-2.47738 3.3223 0.745858 0.554659 -0.743826 0.372929
-4.85976 -1.72885 1.81417 0.396595 0.141088 0.907087
7.33588 2.31389 1.06612 0.80689 0.25451 0.53306
-1.91457 7.62538 -0.729888 -0.226725 0.903002 -0.364944
-0.74211 4.85496 -1.67775 0.0822478 -0.538074 -0.838875
5.68058 4.90147 -1.31959 0.568934 0.490902 -0.659795
6.10319 4.67704 -1.07082 0.670384 0.513733 -0.535409
7.37838 -2.6127 -0.812996 0.86125 -0.30497 -0.406498
5.19504 6.02092 0.433981 0.637706 0.739085 0.21699
-5.68404 -0.456672 1.97773 0.148345 0.0119185 0.988864
3.71114 6.73684 1.06733 0.408053 0.74074 0.533663
3.51283 -3.86821 -1.84383 -0.260434 0.286781 -0.921917
6.75644 3.62086 1.10728 0.733998 0.393359 0.553639
6.61505 2.97175 1.55972 0.570983 0.256509 0.77986
1.53129 5.2277 1.92213 -0.0776762 -0.26518 0.961065
-5.37737 -5.2296 1.32175 -0.538021 -0.523237 0.660875
3.97547 -5.92274 -1.64795 0.315788 -0.470468 -0.823977
-1.52532 -7.59627 0.972034 -0.172053 -0.856846 0.486017
3.42449 2.07844 -0.153146 -0.852356 -0.517325 -0.0765732
0.439446 -7.18876 -1.59836 0.036676 -0.599972 -0.79918
-5.17438 -3.03569 -2 0.000373708 0.000219246 -1
3.50239 1.95036 0.187633 -0.869818 -0.48437 0.0938167
-3.90457 1.16147 0.537788 0.923191 -0.274617 0.268894
-0.306523 -4.38717 -1.19715 0.055833 0.79912 -0.598573
3.52069 6.94514 0.89904 0.403893 0.796745 0.44952
1.63217 3.97369 -1.04682 -0.323741 -0.788184 -0.523409
-0.365022 4.75728 1.57804 0.0470019 -0.612569 0.789018
-2.2236 -3.32509 0.017759 0.555867 0.831224 0.0088795
4.5208 -2.36017 1.78596 -0.398994 0.208303 0.89298
-4.43407 -1.69997 1.56027 0.584153 0.223957 0.780134
-4.60639 0.741963 1.4899 0.658631 -0.106087 0.74495
-1.86345 -6.49776 -1.8501 -0.104711 -0.365122 -0.925052
-4.48047 3.75717 1.99416 0.0585019 -0.0490576 0.997081
5.46474 1.48306 -1.9713 -0.162903 -0.0442099 -0.985651
-7.27447 -0.710546 -1.51205 -0.651444 -0.0636309 -0.756024
0.43389 3.97655 0.0248286 -0.10846 -0.994023 0.0124143
5.76615 3.33731 1.88716 0.286603 0.165879 0.94358
-6.09618 -3.5711 1.69278 -0.459527 -0.269188 0.846388
3.60648 -4.71244 1.99891 -0.0200196 0.0261588 0.999457
3.34903 6.31416 -1.63816 0.268808 0.506802 -0.819081
0.758972 4.54183 -1.43298 -0.114979 -0.688055 -0.716492
2.70705 6.26062 1.82381 0.162883 0.3767 0.911903
-0.217689 -3.99475 0.0522208 0.0543943 0.998178 0.0261104
-4.43294 -1.56035 1.51947 0.613345 0.215891 0.759736
1.86276 7.77563 -0.131893 0.232464 0.970367 -0.0659467
-5.32971 -5.63635 0.9551 -0.603659 -0.63839 0.47755
-7.164 -1.64812 -1.4746 -0.658369 -0.151462 -0.737299
3.77839 6.20724 -1.54767 0.329333 0.541036 -0.773834
0.160974 -5.46433 -1.92759 -0.00785186 0.266534 -0.963793
-4.15366 -6.82974 -0.159393 -0.517968 -0.851679 -0.0796964
-5.35629 -3.3241 1.97677 -0.129118 -0.0801303 0.988386
-4.10627 -1.5163 1.1691 0.761124 0.281056 0.584549
-2.10767 3.87196 1.21117 0.380462 -0.698939 0.605585
5.05472 2.08142 1.92753 -0.246661 -0.101569 0.963765
6.24534 2.9583 1.78069 0.411456 0.194899 0.890347
-2.79627 -7.4728 -0.290151 -0.346753 -0.926669 -0.145075
-6.80128 3.11801 -1.34308 -0.673559 0.30879 -0.67154
-3.38489 -4.40977 -1.9508 0.134231 0.174874 -0.975398
-4.98414 -1.10655 1.78882 0.436619 0.0969357 0.894409
-4.96974 -0.903927 1.76066 0.466707 0.0848876 0.880329
-4.94128 -1.31296 -1.79242 0.428753 0.113925 -0.89621
2.26266 -3.97697 -1.40393 -0.352194 0.619035 -0.701965
5.22972 -0.129989 -1.84639 -0.384214 0.00954999 -0.923195
-4.85435 -5.03394 1.73594 -0.344726 -0.357479 0.86797
3.82506 4.96831 1.98167 0.0824122 0.107044 0.990833
-2.0608 -7.72614 0.122347 -0.257238 -0.96441 0.0611734
-6.05666 -4.60745 1.18658 -0.640676 -0.487379 0.593292
7.11834 -2.03744 1.42417 0.674987 -0.193197 0.712087
-3.45687 2.38713 -0.873817 0.740176 -0.511126 -0.436908
-5.7287 -5.14431 1.05442 -0.632235 -0.56774 0.527209
-3.83249 -6.92339 0.582262 -0.463328 -0.837001 0.291131
2.05188 -3.55706 -0.643782 -0.473079 0.820111 -0.321891
-1.16113 -4.00321 -0.802818 0.25514 0.879645 -0.401409
-2.99779 -3.15159 -1.12972 0.568723 0.5979 -0.564862
-1.82372 6.52469 -1.84383 -0.104282 0.373088 -0.921917
-7.96619 0.675812 0.144064 -0.993832 0.0843119 0.0720321
5.67794 3.79047 -1.82105 0.343869 0.229559 -0.910525
5.6395 -0.998489 1.98131 -0.134307 0.0237795 0.990654
-7.89842 -1.20795 -0.197162 -0.983692 -0.150441 -0.0985812
5.27966 1.32179 -1.92076 -0.270354 -0.0676847 -0.960379
-4.06738 -1.96561 1.34239 0.667432 0.322545 0.671193
-2.48056 -5.35178 1.99743 0.0212995 0.0459535 0.998716
5.6031 2.07134 1.99983 -0.0123287 -0.00455766 0.999914
4.09865 0.661246 -0.763945 -0.912376 -0.147196 -0.381972
-4.15098 -2.45185 -1.61555 0.507564 0.299801 -0.807773
-7.59219 0.346106 1.1999 -0.799209 0.0364336 0.599948
-2.49391 3.6258 -1.20091 0.453175 -0.658852 -0.600455
3.73846 -2.65931 -1.41623 -0.575375 0.409287 -0.708116
6.2832 2.39057 -1.8649 0.337688 0.12848 -0.932448
1.75275 4.3329 -1.49723 -0.248627 -0.614621 -0.748616
6.74844 4.25007 -0.313705 0.835699 0.526312 -0.156853
1.12262 -3.94891 0.640658 -0.259041 0.911201 0.320329
4.2446 2.49306 1.685 -0.464503 -0.272826 0.842498
2.83555 6.43369 1.71388 0.20787 0.471644 0.856938
-1.27293 -3.82373 0.345356 0.311114 0.934553 0.172678
-7.0996 -3.21124 -0.887957 -0.816408 -0.369272 -0.443978
4.01964 0.0156438 0.279835 -0.990156 -0.00385353 0.139918
1.43366 4.25469 1.31115 -0.241129 -0.715598 0.655574
-7.30631 1.37961 -1.39269 -0.705247 0.133168 -0.696342
1.10929 -4.62304 1.56465 -0.145331 0.605676 0.782327
6.05282 3.25395 1.79988 0.384038 0.206456 0.899939
-1.74393 -4.59504 -1.68001 0.192522 0.507272 -0.840006
-4.53915 -1.63378 -1.61788 0.553152 0.199096 -0.80894
-3.08523 -3.32992 -1.36636 0.496309 0.535671 -0.68318
5.04348 3.13036 1.99897 -0.0271979 -0.016881 0.999488
2.59511 -5.65944 1.98718 0.0471126 -0.102743 0.993592
-5.6121 -4.76397 1.46507 -0.518962 -0.440535 0.732535
-0.824307 4.29879 1.16886 0.152813 -0.796925 0.584431
-7.65619 1.05798 1.00536 -0.856334 0.118333 0.502682
3.68393 6.99893 -0.595599 0.444642 0.844754 -0.297799
7.03949 3.77976 0.19921 0.87665 0.470706 0.0996052
-1.88055 -5.08074 -1.91332 0.101081 0.273093 -0.956662
2.61099 -7.55596 -0.150106 0.325683 -0.942495 -0.0750528
2.22686 6.43666 1.8282 0.132576 0.383208 0.914098
-3.69077 -1.61761 -0.343355 0.902295 0.395463 -0.171677
4.39269 1.77023 1.54992 -0.5862 -0.236236 0.774959
3.04866 6.60508 1.54114 0.267101 0.578687 0.77057
-3.8158 1.56488 -0.693856 0.867754 -0.355871 -0.346928
4.66446 5.97391 -1.2272 0.485952 0.622373 -0.613598
2.96755 3.93913 -1.69087 -0.321361 -0.426575 -0.845435
-4.29939 -2.13816 -1.60129 0.536463 0.266792 -0.800643
-3.79634 -1.2824 0.168196 0.94405 0.3189 0.0840978
5.35778 -0.857259 -1.91584 -0.283429 0.0453494 -0.95792
-4.05177 -3.55579 1.90495 0.22895 0.200924 0.952477
-1.76103 -3.62677 -0.354727 0.429868 0.8853 -0.177364
0.517748 3.99042 -0.30809 -0.127133 -0.979851 -0.154045
-4.43488 -3.1053 -1.91222 0.240026 0.168065 -0.956108
-3.228 -2.37488 -0.172985 0.802471 0.590389 -0.0864923
4.26638 3.37441 1.91987 -0.219789 -0.173838 0.959934
5.62263 1.53329 -1.99259 -0.0829951 -0.0226327 -0.996293
-2.09261 -7.55755 -0.779331 -0.245757 -0.887561 -0.389665
-6.3936 -4.5704 -0.737197 -0.756239 -0.54059 -0.368598
-3.68145 -6.30071 1.52209 -0.327261 -0.560098 0.761046
0.837264 4.15489 0.946991 -0.173994 -0.86344 0.473496
-4.77548 -3.48328 1.99801 0.0360034 0.0262612 0.999007
5.83799 -5.13706 -0.919019 0.666784 -0.586728 -0.459509
2.45963 3.61202 1.15885 -0.458738 -0.673668 0.579423
3.81106 2.72248 1.50568 -0.535581 -0.382598 0.752843
0.570468 4.97163 1.7345 -0.0567562 -0.49463 0.867248
-3.73093 -2.34397 -1.20814 0.674808 0.423951 -0.60407
5.93322 0.752837 1.99991 -0.00952795 -0.00120895 0.999954
4.76512 5.69994 1.39888 0.458395 0.548323 0.69944
-4.1743 -0.0684704 0.817843 0.912447 0.0149667 0.408921
-4.21556 -1.58798 -1.32822 0.699641 0.263551 -0.664111
6.79989 3.48512 1.14333 0.730172 0.374232 0.571663
0.022345 4.17763 0.824128 -0.00487344 -0.911142 0.412064
0.110594 -4.11032 0.659334 -0.0253932 0.943756 0.329667
-4.35061 -3.48713 -1.95446 0.165559 0.1327 -0.977231
3.55311 7.16764 0.00820725 0.444136 0.89595 0.00410363
4.0406 -0.316284 0.457219 -0.970549 0.0759712 0.22861
-4.83965 -4.19301 1.95889 -0.152444 -0.132076 0.979447
2.56996 7.57378 0.0910946 0.320995 0.945985 0.0455473
-5.46728 -5.76418 0.46741 -0.669117 -0.705453 0.233705
5.66417 0.348415 1.9734 -0.162255 -0.00998066 0.986698
-3.29443 -5.36428 1.9781 -0.077227 -0.125748 0.989052
-3.94917 -5.30235 1.90425 -0.182608 -0.245178 0.952125
3.74034 6.42783 -1.39118 0.361334 0.620959 -0.695592
-3.99735 -6.81616 0.618918 -0.481045 -0.820263 0.309459
5.96227 4.70643 1.20532 0.626367 0.494435 0.60266
4.23478 2.20703 1.58124 -0.54299 -0.282989 0.790619
6.08272 1.56003 -1.98036 0.13541 0.0347284 -0.990181
-5.18108 -2.21406 1.96629 0.16813 0.071848 0.983143
-4.4691 -6.31797 -0.988152 -0.502081 -0.709791 -0.494076
-0.645436 -3.95501 0.171048 0.160474 0.983328 0.0855239
4.0908 5.09187 1.92806 0.166474 0.207212 0.964028
6.81747 4.14328 0.297417 0.845057 0.513579 0.148708
5.71688 5.2777 -0.910862 0.654142 0.603888 -0.455431
4.91798 1.74614 1.84111 -0.368104 -0.130696 0.920553
0.408016 4.36321 1.17596 -0.0753119 -0.805363 0.587978
-6.66187 -2.44689 1.67229 -0.514879 -0.189114 0.836143
0.987881 4.39477 -1.32788 -0.163999 -0.72958 -0.66394
-2.42027 -6.0269 -1.93785 -0.0921773 -0.229538 -0.968925
4.76697 4.2226 1.96581 0.137821 0.122083 0.982904
-6.49457 -4.64369 -0.252902 -0.806924 -0.57696 -0.126451
-6.1219 -4.60631 -1.11356 -0.663751 -0.499428 -0.556782
-3.18268 -4.72675 -1.97713 0.0842285 0.125092 -0.988563
-1.18551 4.35377 -1.33668 0.195434 -0.717725 -0.668338
-6.23541 -4.648 0.917436 -0.712428 -0.531059 0.458718
6.55627 3.96164 1.11518 0.710483 0.429311 0.557589
-3.88611 -4.07898 -1.96619 0.126291 0.132559 -0.983097
-3.5474 -2.47378 1.09252 0.687056 0.479118 0.54626
3.82915 1.3781 0.522977 -0.908181 -0.326851 0.261489
5.29046 2.37718 -1.98997 -0.091218 -0.0409874 -0.994987
1.93208 5.79949 1.99681 0.017835 0.0535348 0.998407
-2.93683 -4.95242 -1.98527 0.0617878 0.104194 -0.992636
7.11558 3.26634 0.808137 0.831325 0.381612 0.404069
3.40551 3.65724 1.73048 -0.341659 -0.366914 0.865242
-7.06651 -2.62418 -1.27847 -0.720909 -0.267713 -0.639234
-3.89523 4.27182 1.98799 0.0737413 -0.0808706 0.993993
3.58658 1.78627 0.164633 -0.892089 -0.444298 0.0823164
-1.35065 -4.96526 1.80835 0.112122 0.412181 0.904177
-2.14323 3.77669 -1.11915 0.409047 -0.720802 -0.559576
-5.96485 -4.10745 -1.5674 -0.51158 -0.352279 -0.783699
7.06065 2.77677 -1.21708 0.738467 0.290419 -0.608541
5.90053 0.971804 1.9999 -0.00985442 -0.001623 0.99995
0.124595 4.5625 1.39229 -0.0195976 -0.717634 0.696145
-2.4997 -3.91302 1.46948 0.365188 0.571663 0.734738
-1.74561 -3.63598 -0.363455 0.425594 0.886479 -0.181728
-4.29179 -5.18321 1.86224 -0.232601 -0.280914 0.93112
-4.18628 -0.430555 0.888829 0.89112 0.091651 0.444415
3.12414 4.53604 1.93849 -0.139591 -0.202677 0.969245
-4.7584 -2.33437 1.87356 0.314155 0.154118 0.936779
2.349 5.96231 -1.95787 0.0748407 0.189963 -0.978935
0.468169 -4.30586 1.10237 -0.0901896 0.829495 0.551185
-1.84428 -3.55827 0.176766 0.45837 0.884356 0.088383
0.0622722 -4.71013 1.52882 -0.00852313 0.644672 0.764412
3.49619 2.46908 -1.02084 -0.702418 -0.496062 -0.510422
-6.64573 -3.20631 1.4488 -0.620895 -0.299558 0.7244
-1.61972 -4.28018 1.40476 0.251927 0.665727 0.702382
0.589861 5.0755 1.79089 -0.0513907 -0.442194 0.895446
-4.51052 -0.250394 -1.34242 0.740129 0.0410871 -0.671208
-6.34682 -4.81342 -0.369244 -0.783079 -0.593887 -0.184622
2.11993 3.6666 -0.941261 -0.441637 -0.763848 -0.47063
-4.83858 -0.805651 1.67374 0.53997 0.0899081 0.836868
0.103142 4.05356 0.465276 -0.0247387 -0.972249 0.232638
4.01908 4.00211 1.9729 -0.116264 -0.115773 0.986448
4.3375 -0.385304 1.13692 -0.819485 0.0727957 0.568459
6.68731 4.26793 -0.512653 0.814792 0.52001 -0.256326
3.11937 -4.8226 1.98349 -0.06965 0.10768 0.991743
-3.75992 -5.50896 -1.88453 -0.188778 -0.276594 -0.942262
6.90537 1.70296 -1.66219 0.53995 0.133159 -0.831097
3.48696 -4.94364 1.99938 0.0143137 -0.0202933 0.999692
3.64131 1.73455 0.363667 -0.887753 -0.422885 0.181833
5.44292 4.97311 -1.45451 0.50671 0.462972 -0.727256
-3.859 3.28948 -1.77102 0.353591 -0.301408 -0.885509
1.96687 6.0346 -1.96966 0.0537726 0.164981 -0.98483
0.870574 -5.77795 1.99384 -0.0116832 0.0775404 0.996921
4.2744 1.09278 -1.21568 -0.769316 -0.196682 -0.60784
-0.452066 -4.30307 1.09555 0.0874121 0.832047 0.547775
0.253062 -4.44135 1.26215 -0.0441281 0.774467 0.631073
-2.55837 -6.08822 -1.90664 -0.116979 -0.278378 -0.953321
-0.525028 -4.08993 0.691884 0.119464 0.930619 0.345942
-6.00171 -3.0553 1.86019 -0.327342 -0.166641 0.930096
-6.35592 -4.85787 -0.0292056 -0.794426 -0.607186 -0.0146028
4.59163 2.11785 1.76347 -0.428373 -0.197583 0.881735
-6.37053 -2.74856 1.76631 -0.430707 -0.185828 0.883153
3.91063 4.90654 -1.9811 0.0854902 0.107262 -0.990548
6.10325 5.17137 0.0427602 0.762775 0.646311 0.0213801
-4.18367 -2.03527 -1.47788 0.60588 0.294748 -0.738941
-3.84872 -2.91642 1.62126 0.466699 0.353648 0.810632
3.70265 -6.73119 -1.08153 0.405419 -0.737027 -0.540765
-6.64826 -1.00547 -1.86441 -0.357864 -0.0541224 -0.932204
-4.98108 6.24486 -0.218058 -0.619847 0.777112 -0.109029
6.04033 2.60305 1.91486 0.265104 0.114245 0.957428
-4.11761 -3.86879 -1.96913 0.127546 0.119838 -0.984566
5.14771 3.93855 -1.94115 0.191243 0.146321 -0.970575
-4.46441 -1.34674 1.48753 0.639957 0.193051 0.743765
-2.45551 -7.44001 0.79605 -0.287517 -0.871154 0.398025
-0.5949 -4.72862 1.57384 0.0770236 0.612229 0.78692
7.78875 -0.773578 0.813506 0.909065 -0.0902882 0.406753
-5.2052 -5.68544 1.04001 -0.57679 -0.630007 0.520004
-3.97284 -5.06244 1.95208 -0.134336 -0.17118 0.976039
7.44028 2.76886 0.49102 0.908522 0.338101 0.24551
0.201791 7.03933 1.70698 0.0149322 0.520897 0.853489
6.0444 5.01562 -0.749178 0.713528 0.592082 -0.374589
-5.318 -2.30666 -1.98964 0.0932541 0.0404486 -0.99482
-4.93384 -2.03047 -1.88632 0.307336 0.126481 -0.943158
3.95215 3.81091 -1.93394 -0.183484 -0.176926 -0.96697
2.42699 6.05925 1.92925 0.09802 0.244718 0.964627
2.21705 5.3029 1.98402 -0.0486595 -0.116388 0.992011
-5.04451 -5.3081 1.50009 -0.455616 -0.479423 0.750045
-3.45077 -2.04665 0.219292 0.854915 0.507048 0.109646
4.65573 5.73518 1.44089 0.437092 0.538433 0.720445
-3.77039 1.90309 0.918635 0.792984 -0.400255 0.459318
1.1788 7.8216 -0.593434 0.142316 0.944301 -0.296717
2.88648 3.19322 -1.06074 -0.568494 -0.628908 -0.530368
1.59786 5.65212 1.996 -0.0171879 -0.0607989 0.998002
6.34656 -0.485903 1.96639 0.182033 -0.0139367 0.983194
-4.30236 -5.92041 1.50378 -0.387575 -0.533335 0.75189
3.21862 4.39157 1.92138 -0.164112 -0.223919 0.960691
-6.03927 -2.99044 -1.85842 -0.331175 -0.163986 -0.92921
2.2226 3.88651 1.29652 -0.377993 -0.660971 0.648258
-1.52373 -6.97389 -1.64439 -0.1215 -0.556088 -0.822195
4.30778 6.72935 0.199074 0.536465 0.838032 0.0995369
-4.25862 -5.68908 -1.66607 -0.331523 -0.442881 -0.833036
-5.70283 -4.04451 -1.73696 -0.404354 -0.286773 -0.868481
0.805673 7.562 1.19357 0.0850084 0.797885 0.596786
-5.87508 -3.24019 -1.86998 -0.310574 -0.171286 -0.934989
3.54876 2.07735 -0.66007 -0.814656 -0.476878 -0.330035
-4.87018 -3.04919 -1.9838 0.107653 0.0674012 -0.991901
4.19247 1.30268 1.18681 -0.768653 -0.238834 0.593407
3.8732 1.32544 -0.605028 -0.901803 -0.308605 -0.302514
4.0427 2.48408 -1.55715 -0.534679 -0.328539 -0.778576
3.23444 4.26113 1.89131 -0.196601 -0.259007 0.945655
-7.09935 -3.15818 0.930933 -0.80866 -0.359736 0.465466
4.71351 5.93082 1.23169 0.490199 0.616798 0.615845
4.05758 6.11449 -1.48623 0.37 0.557563 -0.743117
1.12244 -7.01773 1.66575 0.087412 -0.546518 0.832873
-3.41914 -5.25148 1.98217 -0.0726955 -0.111653 0.991085
5.68694 4.80066 -1.38557 0.551055 0.465176 -0.692784
0.145155 4.63646 1.46525 -0.0212984 -0.680301 0.732623
-4.52957 -4.60974 1.94574 -0.162153 -0.165023 0.972869
-5.95042 -1.89866 1.98481 -0.117174 -0.0373878 0.992407
4.02032 4.70917 -1.99077 0.06229 0.072963 -0.995388
3.22228 -6.93333 1.13676 0.346762 -0.746123 0.56838
1.15788 4.68248 -1.61737 -0.141207 -0.571044 -0.808684
-7.71732 0.184952 -1.02137 -0.85952 0.0205991 -0.510687
3.06243 6.24046 1.75922 0.209567 0.427045 0.87961
-1.74797 -6.35143 -1.91174 -0.0779541 -0.283254 -0.955871
2.20034 3.41921 -0.509604 -0.523292 -0.813167 -0.254802
2.39767 3.97293 1.46676 -0.35126 -0.582038 0.733381
-5.54188 -4.49205 1.64758 -0.440392 -0.356966 0.82379
-0.934707 -6.73907 1.83146 -0.0551998 -0.397981 0.915732
3.58246 3.20385 1.60456 -0.444963 -0.397938 0.80228
2.80528 4.07617 -1.7011 -0.298146 -0.433215 -0.850549
-4.41357 -5.29854 -1.78809 -0.286715 -0.344205 -0.894045
-3.82699 -1.27831 0.371661 0.931965 0.311301 0.185831
-5.74289 -0.826149 1.99018 0.0979861 0.0140959 0.995088
5.68576 5.45385 0.6862 0.677865 0.650217 0.3431
-3.13257 -6.47699 -1.60392 -0.260096 -0.537781 -0.801961
1.60981 7.7151 -0.678857 0.192132 0.9208 -0.339429
-5.89577 4.8307 1.17001 -0.627342 0.514013 0.585007
-3.4613 -2.45987 0.96163 0.714717 0.507934 0.480815
3.16413 2.44769 -0.0380371 -0.790817 -0.611757 -0.0190185
2.80035 6.28123 1.79737 0.178595 0.40059 0.898683
-4.11059 1.52082 1.17686 0.758311 -0.280557 0.588431
3.17246 3.29913 -1.40536 -0.493171 -0.512861 -0.702678
2.26136 6.59393 1.74852 0.157483 0.459205 0.87426
-3.59531 -1.77935 -0.214413 0.89108 0.441002 -0.107207
2.71594 3.52878 -1.26751 -0.471796 -0.612997 -0.633754
-6.25696 -4.73958 -0.761375 -0.737105 -0.558349 -0.380687
-2.07852 -6.39949 -1.86257 -0.112532 -0.346471 -0.931287
5.74416 5.10094 1.08189 0.628886 0.558464 0.540944
-5.52854 -0.22328 -1.94472 0.233286 0.00942169 -0.972363
2.33854 7.18516 -1.25635 0.240805 0.739872 -0.628173
2.98808 4.08243 -1.76487 -0.277853 -0.379613 -0.882435
-6.48061 -4.42402 -0.767976 -0.76259 -0.520586 -0.383988
-5.09375 5.20138 -1.53662 -0.447847 0.45731 -0.76831
6.6909 -0.667407 1.86432 0.360264 -0.0359358 0.932158
7.06931 -0.820427 1.65918 0.554654 -0.0643702 0.829588
-4.0433 -4.47421 1.99977 -0.010223 -0.0113125 0.999884
-4.10833 -6.7112 0.712355 -0.487861 -0.79695 0.356178
4.05437 -1.04438 0.843821 -0.877976 0.226162 0.42191
6.25481 4.79357 -0.6812 0.746258 0.571918 -0.3406
4.37376 5.82764 1.53143 0.386081 0.514418 0.765713
-6.66032 -0.532697 -1.88027 -0.339711 -0.0271703 -0.940137
-5.93547 -4.99003 0.960315 -0.671427 -0.564477 0.480157
-4.01348 0.48249 -0.409507 0.971816 -0.116829 -0.204753
-3.36167 2.91007 1.25934 0.58736 -0.508455 0.629668
-3.39125 -3.14184 1.45043 0.505079 0.467932 0.725214
4.35782 2.66389 -1.78983 -0.380733 -0.232738 -0.894916
-7.10438 -3.42195 0.66686 -0.84938 -0.409119 0.33343
5.15014 -3.91717 -1.94386 0.187268 -0.142435 -0.971927
-3.59032 -7.09864 0.422142 -0.441164 -0.872252 0.211071
6.41233 4.7583 -0.244926 0.797007 0.591424 -0.122463
0.64188 -4.13403 0.836994 -0.139347 0.897465 0.418497
-3.51608 -7.16527 0.271601 -0.43645 -0.889421 0.1358
-3.95567 0.811876 -0.388672 0.960905 -0.197219 -0.194336
-5.13557 -6.03917 -0.533509 -0.624341 -0.734193 -0.266754
6.24331 4.36641 1.17467 0.663236 0.46385 0.587333
3.60951 2.7917 -1.39118 -0.568295 -0.439536 -0.695592
-6.72178 -2.53931 1.61082 -0.554471 -0.209464 0.805411
2.00233 3.48257 -0.26146 -0.494166 -0.859482 -0.13073
-1.68563 -4.84316 1.79995 0.143297 0.411722 0.899973
3.96237 -3.31408 1.81763 -0.320018 0.267659 0.908816
3.74125 6.55419 -1.26783 0.383406 0.671679 -0.633915
-3.21091 -7.15094 -0.786788 -0.376593 -0.838701 -0.393394
4.13938 1.16488 1.05383 -0.818139 -0.230235 0.526916
1.85162 4.33064 1.52826 -0.253597 -0.593124 0.764128
2.20887 5.85313 -1.98354 0.0452037 0.119782 -0.991771
3.32895 7.04235 -0.893105 0.382386 0.808933 -0.446553
-0.22284 -5.2766 -1.86641 0.0151623 0.359027 -0.933204
-1.49289 3.86219 -0.736849 0.335181 -0.867132 -0.368425
-5.16475 -1.84086 1.93203 0.243489 0.0867861 0.966013
3.51223 7.11262 0.515058 0.427829 0.866396 0.257529
-5.79361 1.62054 -1.99994 -0.00769677 0.00215287 -0.999968
0.648593 4.88265 -1.68687 -0.0707425 -0.532554 -0.843435
2.24741 7.41698 0.968262 0.253738 0.837397 0.484131
0.881768 4.10845 0.875913 -0.188649 -0.87898 0.437957
4.23083 5.22093 1.86591 0.226644 0.279684 0.932957
-4.90923 -4.98915 -1.73237 -0.350492 -0.356198 -0.866186
7.97058 0.441263 -0.261841 0.989877 0.0548011 -0.13092
3.49455 4.25047 -1.93716 -0.15795 -0.192117 -0.968578
1.46939 6.4733 1.89552 0.0706116 0.311075 0.947759
2.58886 3.13269 0.50181 -0.616648 -0.746185 0.250905
-5.33259 -4.41797 -1.77326 -0.356132 -0.29505 -0.886632
3.08908 5.70886 -1.93879 0.116841 0.215931 -0.969393
-0.343227 5.43767 1.92246 0.017371 -0.275206 0.961228
2.59099 3.09044 -0.36112 -0.631909 -0.753717 -0.18056
-3.42815 -6.91527 -1.02333 -0.381611 -0.769787 -0.511665
1.27608 4.87562 -1.75445 -0.121555 -0.464434 -0.877226
-0.604055 -6.9494 -1.74591 -0.0422414 -0.485969 -0.872954
6.92112 3.09715 -1.22299 0.722234 0.323194 -0.611494
-6.48737 -4.62076 0.373783 -0.800158 -0.569929 0.186891
2.81503 -3.07229 -0.799926 -0.619175 0.67576 -0.399963
2.61957 5.39525 -2 -0.000531149 -0.00109395 -0.999999
3.49712 1.94214 0.0298642 -0.874135 -0.485454 0.0149321
-1.84082 5.26253 1.95437 0.0701298 -0.200487 0.977183
4.38503 1.34165 1.41411 -0.676215 -0.206895 0.707055
4.02264 6.34329 -1.31001 0.404674 0.63813 -0.655003
5.90964 5.39215 -0.0147538 0.73869 0.674005 -0.00737688
2.73029 6.71181 1.56454 0.234728 0.577026 0.782269
3.63373 -2.34412 1.09168 -0.704096 0.454213 0.545839
5.99959 5.11766 -0.666215 0.717361 0.611909 -0.333108
6.66564 3.52138 -1.27774 0.680227 0.359356 -0.63887
1.11426 5.18162 -1.87353 -0.0735743 -0.342141 -0.936764
2.32151 6.50733 -1.78147 0.152723 0.428092 -0.890737
3.33408 6.44711 1.55466 0.288977 0.558794 0.777329
4.85038 -4.08117 1.97107 0.129671 -0.109107 0.985536
4.60855 0.430925 -1.45581 -0.682698 -0.0638361 -0.727907
0.355201 4.33174 1.12481 -0.0675754 -0.824095 0.562407
-2.73651 2.96967 -0.389246 0.66469 -0.721325 -0.194623
-5.5323 -0.471507 1.94926 0.223011 0.0190068 0.974631
5.53986 3.99214 1.82037 0.336044 0.242161 0.910183
-0.332754 -4.48458 -1.31936 0.0556116 0.749486 -0.65968
4.35867 -0.267841 1.15453 -0.815018 0.050083 0.577267
3.13691 3.67465 1.62314 -0.379338 -0.444365 0.811568
4.20328 6.30414 1.23017 0.437397 0.656014 0.615086
6.16248 4.38758 -1.24548 0.637381 0.453804 -0.622742
-5.50679 -1.40285 1.97467 0.153753 0.0391686 0.987333
2.19463 -6.08804 1.94362 0.0799523 -0.221793 0.97181
-1.23481 -4.48338 -1.47592 0.179192 0.650617 -0.737962
-3.20098 -7.26837 -0.478118 -0.391358 -0.888645 -0.239059
3.40434 4.20642 1.91143 -0.185138 -0.228758 0.955716
-6.60721 -4.48168 0.254264 -0.820864 -0.556793 0.127132
-3.24891 -5.63246 1.93589 -0.125491 -0.217557 0.967947
7.61944 -0.398422 -1.15913 0.813813 -0.0425545 -0.579566
-3.75548 -2.05407 1.02147 0.754286 0.412558 0.510733
1.99177 4.02306 -1.31043 -0.335182 -0.677014 -0.655214
2.96647 5.2754 -1.99932 0.0128058 0.0227731 -0.999659
4.66998 6.01802 -1.1764 0.495796 0.638913 -0.588198
-3.00683 -6.50641 1.6238 -0.244904 -0.529943 0.811901
-5.94263 -5.31794 0.317326 -0.735749 -0.658407 0.158663
-7.03036 1.51845 1.60562 -0.582796 0.125875 0.802811
4.13944 -0.0707569 -0.735243 -0.92984 0.0158941 -0.367622
6.88328 4.01471 0.353422 0.850214 0.495892 0.176711
0.803979 4.23277 1.06708 -0.157826 -0.830919 0.53354
4.3501 0.0686643 -1.13121 -0.824575 -0.0130155 -0.565603
-4.97796 -3.8371 -1.97956 -0.112932 -0.0870498 -0.989782
-4.19826 3.82927 1.97461 0.117358 -0.107044 0.987304
4.03587 0.147698 -0.390892 -0.980058 -0.0358666 -0.195446
0.172755 -4.47479 1.29765 -0.0293551 0.76037 0.648826
4.76295 6.35693 0.472801 0.582622 0.777603 0.236401
-4.93549 1.12956 -1.76698 0.456644 -0.10451 -0.88349
-1.16583 -7.53047 -1.17262 -0.123937 -0.80055 -0.586309
-6.33183 -2.84771 1.76387 -0.429891 -0.193341 0.881937
5.45406 1.64862 -1.97703 -0.144644 -0.0437223 -0.988517
7.34906 2.15613 1.11727 0.795867 0.233498 0.558636
-3.54526 4.55537 -1.987 0.0699031 -0.0898196 -0.993502
3.60357 1.73616 -0.00206024 -0.900893 -0.434041 -0.00103012
-6.3415 -3.3314 -1.62688 -0.514918 -0.270504 -0.813442
-0.130684 4.09437 -0.613605 0.0303633 -0.951289 -0.306803
-4.50192 -0.13923 1.32748 0.747606 0.0231211 0.66374
-2.6486 -3.27098 -0.889815 0.56358 0.696013 -0.444908
0.773842 7.68621 -1.01201 0.0864023 0.858193 -0.506003
2.09819 7.69 -0.33876 0.259421 0.950795 -0.16938
0.948169 4.96128 1.76055 -0.0890646 -0.466029 0.880275
-6.45229 -4.43854 0.803461 -0.754482 -0.519009 0.40173
-3.91896 -2.4115 1.42973 0.595544 0.366462 0.714866
-7.2169 3.19975 0.64119 -0.865922 0.383923 0.320595
5.02096 3.40774 1.99884 0.0282033 0.0191417 0.999419
-4.26008 -6.64144 -0.653245 -0.510301 -0.795557 -0.326622
3.87928 6.97241 -0.28954 0.481068 0.864647 -0.14477
0.0902357 6.61424 -1.90314 0.00419376 0.307401 -0.951571
-5.13079 -1.71299 -1.91074 0.280201 0.0935492 -0.955372
2.32676 3.73261 1.1979 -0.423613 -0.679565 0.598951
-5.70293 0.297425 -1.97896 0.144464 -0.00753423 -0.989481
1.24863 4.59501 1.5705 -0.162366 -0.597514 0.785248
-6.1522 -4.47396 -1.19066 -0.649821 -0.472558 -0.595332
3.66896 2.81603 1.45244 -0.545347 -0.41857 0.72622
-3.16693 -2.83689 -0.971407 0.651093 0.583241 -0.485703
-2.96602 -6.37748 1.7123 -0.217905 -0.468536 0.856149
-2.40109 -7.62899 0.0912096 -0.299902 -0.952879 0.0456048
-4.2102 -3.08223 -1.84072 0.315554 0.231012 -0.920358
4.54447 -3.52751 1.98467 -0.097609 0.0757662 0.992337
1.27648 3.82759 0.37164 -0.310854 -0.932116 0.18582
-1.81598 -5.07368 1.90434 0.10297 0.287689 0.952172
2.80751 6.52433 -1.66852 0.217942 0.506471 -0.834259
-7.0533 -2.99982 1.10847 -0.765961 -0.325769 0.554237
4.13062 -2.16983 1.48998 -0.590553 0.31022 0.744991
3.76703 3.68609 -1.8622 -0.260715 -0.255114 -0.931098
4.63989 -0.637098 -1.50553 -0.652168 0.0895485 -0.752766
-1.09172 -7.41759 1.32571 -0.109026 -0.740768 0.662855
-5.66901 -2.54003 1.98873 -0.0967526 -0.0433504 0.994364
2.26962 -5.17417 1.96915 -0.0702851 0.160233 0.984574
-5.43914 -4.84845 1.53139 -0.480136 -0.427994 0.765696
-2.39238 -4.01929 1.50025 0.338236 0.56825 0.750126
-7.06345 -1.68285 -1.55225 -0.613409 -0.146143 -0.776126
-3.85872 -6.45429 -1.30006 -0.389939 -0.652232 -0.650032
-5.78676 -5.21267 0.895418 -0.664376 -0.598466 0.447709
-4.86708 -1.08214 -1.72385 0.494951 0.110047 -0.861924
4.87591 2.22684 -1.89495 -0.290922 -0.132865 -0.947476
-3.38443 -2.1634 0.258681 0.835492 0.534064 0.12934
6.95773 3.9245 -0.216702 0.865871 0.488393 -0.108351
-0.675831 4.08772 -0.743183 0.151438 -0.915962 -0.371591
-4.02313 -0.957152 0.723429 0.906974 0.21578 0.361715
7.21959 2.33087 -1.21775 0.754898 0.243721 -0.608875
2.4223 4.17372 1.61896 -0.294722 -0.507818 0.809481
3.7287 1.61198 -0.495015 -0.889337 -0.384475 -0.247507
-3.88681 0.952999 0.087904 0.970294 -0.237904 0.043952
6.35332 -3.24326 1.64794 0.504678 -0.257629 0.823971
-7.12228 -3.07099 -0.957054 -0.806313 -0.347666 -0.478527
-2.37786 3.88387 1.38167 0.377521 -0.616625 0.690834
-6.61421 0.38181 -1.89976 -0.312092 0.0180157 -0.949881
3.25434 -6.40778 -1.6098 0.268707 -0.529083 -0.804902
-1.54254 -3.75541 -0.485671 0.368576 0.89732 -0.242836
5.50526 5.80232 0.0794074 0.68775 0.724861 0.0397037
7.26172 3.1911 -0.517284 0.884352 0.388621 -0.258642
5.68975 4.31375 -1.64319 0.454272 0.344412 -0.821594
-6.72038 -3.63856 -1.14162 -0.722044 -0.390931 -0.570812
-0.980804 -4.35088 -1.27616 0.169323 0.751121 -0.638081
0.526748 -5.41966 -1.92151 -0.0268347 0.2761 -0.960754
-4.80439 1.5394 -1.75726 0.454735 -0.145704 -0.878628
-1.20721 -7.70526 0.87331 -0.139249 -0.888787 0.436655
-3.54416 -3.76192 -1.81895 0.2851 0.302617 -0.909473
1.39472 -4.06158 1.04444 -0.276974 0.80658 0.522221
-4.26619 -4.30544 1.99907 -0.0215095 -0.0217074 0.999533
5.71915 -0.593408 1.98429 -0.124407 0.0129083 0.992147
2.51923 -3.35826 0.867929 -0.540631 0.720689 0.433964
3.3246 3.77587 1.74954 -0.320201 -0.363663 0.874769
0.974891 -4.47624 1.40958 -0.150966 0.693165 0.704792
3.49998 2.4436 1.00115 -0.709811 -0.495574 0.500575
5.46969 3.09141 -1.9799 0.123125 0.0695888 -0.989948
1.56873 5.83474 -1.99956 0.00544522 0.0202529 -0.99978
5.9289 -4.30392 -1.49692 0.536683 -0.38959 -0.748459
3.77598 -7.05263 0.0244709 0.471971 -0.881529 0.0122354
6.37607 4.72347 -0.505447 0.777446 0.575941 -0.252723
7.3464 -1.92665 -1.20685 0.771333 -0.202288 -0.603427
-3.19299 -3.83517 1.72645 0.322998 0.387961 0.863225
3.29533 4.42482 -1.94082 -0.144222 -0.193654 -0.970411
3.20337 -2.47878 -0.446258 -0.770934 0.596553 -0.223129
3.26842 3.74976 1.71693 -0.33699 -0.386619 0.858466
5.6962 2.52866 -1.98647 0.106133 0.0471148 -0.993235
5.74539 0.52007 -1.9866 -0.115089 -0.0104178 -0.993301
0.164765 -4.97497 1.71898 -0.0169194 0.510871 0.859491
-3.40406 -2.10514 -0.0979387 0.849484 0.525337 -0.0489694
2.6594 -3.27949 0.916304 -0.559859 0.690401 0.458152
-1.38403 -3.99227 0.922325 0.290642 0.838366 0.461162
-5.70878 -5.3558 0.811836 -0.666508 -0.625298 0.405918
5.42833 5.69322 0.718836 0.643957 0.67538 0.359418
4.467 -4.47364 -1.97391 0.113756 -0.113925 -0.986955
3.93439 -0.859575 -0.328717 -0.96367 0.21054 -0.164358
7.17817 3.07411 -0.853512 0.831339 0.356027 -0.426756
-4.58538 -4.58084 -1.94117 -0.17032 -0.170151 -0.970587
-2.4999 -3.62712 -1.20685 0.452529 0.656578 -0.603426
-4.86639 -2.11845 -1.87629 0.31747 0.138202 -0.938143
7.3695 1.35136 1.33147 0.73395 0.134586 0.665735
-5.36781 -4.59082 -1.69398 -0.404004 -0.345525 -0.846991
7.05688 -2.19361 -1.43806 0.663655 -0.206295 -0.719031
4.12118 6.82776 0.31453 0.510324 0.84548 0.157265
-1.29072 5.42961 -1.9556 0.0484621 -0.203862 -0.977799
5.02884 0.450741 1.75943 -0.4736 -0.0424494 0.879716
-4.9728 -1.3959 -1.81736 0.401961 0.112834 -0.908678
1.59708 6.08593 1.97857 0.037058 0.141215 0.989285
4.73257 2.05862 1.81548 -0.384716 -0.167348 0.907738
5.59576 3.69896 1.87056 0.295238 0.19516 0.935279
-0.149414 4.11315 0.670842 0.034199 -0.941447 0.335421
-3.91771 0.843408 -0.17271 0.973951 -0.209673 -0.0863549
-0.737286 -7.90445 0.491114 -0.0900281 -0.965193 0.245557
-5.56571 -3.26631 1.94794 -0.195503 -0.114733 0.973969
-5.39075 -0.0174014 -1.90495 0.304612 0.000983288 -0.952476
6.54825 -2.08941 1.79916 0.416089 -0.132765 0.89958
1.49729 3.7419 0.347048 -0.365868 -0.914347 0.173524
3.67126 3.73853 1.84986 -0.266346 -0.271227 0.92493
6.5232 3.48236 1.43363 0.615101 0.328367 0.716816
4.09576 6.52161 1.05182 0.452354 0.720276 0.525908
3.53704 2.93711 1.42586 -0.539485 -0.44798 0.71293
5.90339 -4.24073 1.5461 0.515192 -0.370091 0.773052
-3.9682 -6.7547 0.797619 -0.464507 -0.790686 0.39881
-3.64906 -2.0413 -0.831867 0.793654 0.443974 -0.415934
-4.99446 -0.820786 -1.76611 0.463061 0.0760992 -0.883053
7.33076 2.37963 1.04168 0.811949 0.263566 0.520838
-4.14426 -3.25781 -1.86258 0.286381 0.225125 -0.931292
-0.60974 -5.60531 1.96704 0.019553 0.17975 0.983518
-4.35155 -6.66959 0.379652 -0.536492 -0.822279 0.189826
-2.44501 -6.63505 1.68894 -0.185195 -0.502565 0.844471
-3.94302 -1.28915 -0.75606 0.879956 0.287697 -0.37803
-5.73476 -4.57374 1.48895 -0.521969 -0.416295 0.744477
4.31552 1.02276 1.24538 -0.76138 -0.180444 0.622688
-0.200003 4.24419 0.966258 0.0412136 -0.874579 0.483129
4.6838 2.23684 1.82886 -0.365229 -0.174422 0.914431
-2.34369 -3.9306 1.40467 0.364564 0.61141 0.702333
-5.23507 -3.82072 1.94129 -0.194281 -0.141792 0.970644
5.2713 5.98143 0.329246 0.652148 0.740002 0.164623
-4.88008 -6.0377 0.94379 -0.554216 -0.685682 0.471895
-4.56227 1.29234 1.55463 0.605296 -0.171461 0.777315
3.08179 -5.97889 1.86342 0.166406 -0.32284 0.93171
-3.46481 -4.60863 -1.98624 0.0703691 0.0935998 -0.99312
3.88951 5.76492 -1.75763 0.266872 0.39555 -0.878817
-4.98401 -6.25706 -0.047024 -0.622872 -0.78197 -0.023512
2.46547 3.1504 -0.0423035 -0.61616 -0.787337 -0.0211518
-4.67846 -6.41204 -0.496495 -0.570969 -0.782539 -0.248248
3.42927 -2.96687 1.36105 -0.554124 0.479406 0.680526
-0.651233 5.71121 1.98409 0.0142623 -0.125078 0.992044
2.37146 3.22122 0.00745393 -0.592859 -0.805298 0.00372697
3.29454 -3.9911 1.82201 -0.262527 0.318033 0.911007
6.96847 2.67573 -1.36205 0.6836 0.262486 -0.681023
2.77408 3.04574 -0.681563 -0.63306 -0.695056 -0.340782
4.07018 0.671998 0.696716 -0.924841 -0.152694 0.348358
7.15212 2.7544 1.10929 0.776494 0.29904 0.554646
-4.46263 -3.25665 1.94267 0.192022 0.14013 0.971335
-0.623988 7.91765 -0.477329 -0.0762957 0.9681 -0.238664
2.52875 3.2258 -0.620909 -0.586461 -0.748119 -0.310454
2.44506 6.68301 1.65952 0.191764 0.524144 0.829759
-6.98002 -3.84779 0.343207 -0.86276 -0.475603 0.171604
-3.78121 -4.87966 1.99248 -0.053051 -0.0684623 0.996242
-5.38026 -5.89742 0.260982 -0.66821 -0.73244 0.130491
-2.3795 -4.51642 -1.78852 0.20861 0.395953 -0.894261
-2.05318 -4.53606 1.71981 0.21049 0.465032 0.859907
1.53476 5.15262 1.90028 -0.089017 -0.298855 0.950138
4.01961 6.84251 -0.502598 0.490261 0.834562 -0.251299
5.66898 4.56279 1.53915 0.497446 0.400379 0.769574
-4.85109 -1.64915 -1.79782 0.414815 0.141018 -0.898912
5.7928 4.39972 1.54156 0.507355 0.385344 0.770779
5.66779 1.36223 1.99269 -0.0830363 -0.0199574 0.996347
-3.0144 2.79725 -0.660812 0.691849 -0.64201 -0.330406
-6.22911 -2.05751 1.91996 -0.265931 -0.0878383 0.959982
-2.26135 3.63648 1.02437 0.453551 -0.729355 0.512184
-2.32497 -5.7105 1.99313 -0.031232 -0.0767109 0.996564
-0.667476 -7.24367 1.54143 -0.0584657 -0.634489 0.770717
1.67973 -5.68609 1.99874 -0.0100569 0.034044 0.99937
4.76674 4.95314 1.7988 0.303115 0.314968 0.899398
-4.46467 -6.52798 0.597334 -0.538759 -0.787741 0.298667
-4.46283 -0.776381 1.35598 0.724196 0.125986 0.677988
6.68174 -3.99601 -0.901137 0.766179 -0.458212 -0.450568
-4.95563 2.49052 -1.94785 0.202711 -0.101875 -0.973925
3.57899 4.87409 -1.99945 0.0139007 0.0189308 -0.999724
4.11712 3.51186 -1.91144 -0.223885 -0.190972 -0.955722
5.71844 3.85582 1.78759 0.371843 0.250726 0.893795
4.43644 3.06368 -1.90518 -0.25036 -0.172892 -0.95259
-5.83481 3.22768 1.88513 -0.292287 0.161686 0.942564
-0.0174293 -4.77082 -1.57772 0.00224521 0.614569 -0.78886
4.75562 -5.75174 1.36354 0.466165 -0.563808 0.68177
4.32563 6.23031 -1.22012 0.451888 0.650866 -0.610058
2.91793 4.66364 1.93682 -0.132268 -0.211401 0.968408
-1.37233 -5.21729 1.90622 0.0769809 0.292665 0.953111
-5.38332 -3.99922 -1.87115 -0.283468 -0.210585 -0.935575
-7.03415 -3.72353 0.403429 -0.865643 -0.458229 0.201714
-1.45226 -5.16909 -1.89793 0.0853054 0.30363 -0.948963
3.72125 6.83559 -0.906303 0.426225 0.782934 -0.453151
4.06623 6.87956 -0.185174 0.50664 0.857172 -0.0925872
-5.86438 -5.19764 0.792645 -0.687085 -0.608969 0.396322
-4.04569 -1.18903 0.905653 0.855419 0.251408 0.452827
-1.82382 -7.78881 0.0451202 -0.227934 -0.973415 0.0225601
-4.8884 -2.23797 -1.90027 0.283535 0.129806 -0.950136
5.25117 5.55868 1.13491 0.565443 0.598556 0.567455
-3.59615 -6.99624 0.71882 -0.426608 -0.829958 0.35941
-4.57083 6.44061 0.631403 -0.549155 0.773797 0.315702
6.15456 5.06825 -0.328653 0.761449 0.62705 -0.164326
-4.79043 3.52945 1.99938 0.020034 -0.0147605 0.99969
0.130751 4.02843 -0.348223 -0.0319446 -0.984208 -0.174111
0.579531 -4.35941 1.19701 -0.10557 0.794132 0.598506
-0.123886 5.14138 1.80702 0.0103236 -0.428441 0.903511
-4.23961 -4.98683 1.92419 -0.176646 -0.207779 0.962094
-4.04 -6.85417 -0.416237 -0.496661 -0.842624 -0.208119
-4.0506 0.913714 0.765704 0.901167 -0.20328 0.382852
-4.92569 -5.09634 1.67838 -0.377949 -0.391043 0.83919
-3.86968 -1.30335 -0.571104 0.908231 0.305903 -0.285552
-3.38805 -3.50464 -1.6533 0.391116 0.404575 -0.826648
-1.62327 -7.80077 -0.357038 -0.200455 -0.963301 -0.178519
6.38538 -4.81935 -0.0141976 0.798157 -0.602408 -0.00709878
2.71412 7.19149 -1.07488 0.297768 0.788983 -0.537438
-2.34855 -3.80834 1.29312 0.400426 0.64932 0.646562
0.63995 6.51406 1.92419 0.026663 0.271403 0.962096
-2.80048 -4.38256 -1.83343 0.215137 0.336675 -0.916715
5.51728 2.62193 1.99705 0.0490382 0.023304 0.998525
-1.77663 -5.65156 1.99856 0.0113609 0.0361398 0.999282
-7.77782 -1.17324 -0.720234 -0.922471 -0.13915 -0.360117
4.1203 1.94576 1.38445 -0.652578 -0.308172 0.692223
3.98228 0.431775 0.149826 -0.99138 -0.107489 0.0749131
-0.0827763 -5.66092 1.97115 0.00247438 0.169218 0.985575
-3.43252 -4.87343 -1.99962 0.0112527 0.0159764 -0.999809
5.07313 4.94973 1.67832 0.38929 0.379821 0.83916
2.49781 4.73752 1.89336 -0.150255 -0.284984 0.946682
7.28734 3.229 -0.341205 0.900865 0.399171 -0.170602
3.9311 1.18274 -0.640011 -0.907243 -0.272961 -0.320005
0.803972 -4.13351 -0.89407 -0.170784 0.878062 -0.447035
-3.67877 -6.36808 -1.47169 -0.338724 -0.586345 -0.735843
5.83933 3.80485 1.74928 0.406162 0.264651 0.874638
-5.29014 -2.28936 1.98606 0.108174 0.0468132 0.993029
4.48609 4.04001 -1.99966 0.0137875 0.0124165 -0.999828
5.55924 4.42198 -1.66805 0.431789 0.343458 -0.834023
3.38392 5.29366 1.9799 0.0761629 0.119146 0.989951
3.94164 0.682441 0.0334673 -0.985203 -0.170574 0.0167337
-0.74707 5.1811 -1.84778 0.0546112 -0.378741 -0.92389
-5.02002 -0.309733 -1.74879 0.484295 0.0298808 -0.874394
-1.91261 4.16196 -1.4088 0.296389 -0.644962 -0.704399
3.78964 6.44491 1.34905 0.3742 0.63639 0.674523
2.17999 -5.31687 1.98386 -0.0480977 0.117307 0.99193
-6.29616 -3.08738 -1.72484 -0.454491 -0.222864 -0.862421
4.08465 2.99555 1.76817 -0.376851 -0.276371 0.884083
4.29098 0.448698 -1.07642 -0.83824 -0.0876528 -0.538211
5.92561 4.83817 1.13044 0.639 0.521734 0.565218
-1.47998 -3.72982 0.22521 0.366477 0.923588 0.112605
5.71678 4.40135 -1.58878 0.481288 0.370544 -0.794392
0.0717379 -7.92902 -0.5269 0.00872753 -0.964634 -0.26345
-6.08781 -4.77178 -0.994754 -0.682785 -0.535183 -0.497377
-7.82458 -1.28728 0.525372 -0.952083 -0.156634 0.262686
7.2985 3.27492 -0.0412458 0.912167 0.4093 -0.0206229
-4.98307 -4.75546 1.79203 -0.321226 -0.306554 0.896013
4.77701 1.31234 1.70466 -0.504317 -0.138546 0.852332
2.48273 3.47791 1.00895 -0.501656 -0.702742 0.504475
4.36293 0.699695 -1.22451 -0.780684 -0.1252 -0.612255
2.97909 4.89462 1.98168 -0.0702022 -0.115342 0.990842
5.45831 4.72983 1.58288 0.461942 0.40029 0.79144
2.86904 -4.57336 1.9075 -0.159746 0.254641 0.95375
3.44608 4.91505 2 0.000794081 0.00113257 0.999999
-5.27157 -5.40071 1.2676 -0.540288 -0.553523 0.633799
-0.807267 -4.22574 -1.05704 0.159294 0.833843 -0.528518
-2.15149 3.39232 -0.260618 0.531023 -0.837278 -0.130309
3.24129 2.37806 -0.28276 -0.798174 -0.585602 -0.14138
3.42609 5.3736 -1.96493 0.100233 0.157209 -0.982466
0.149128 -4.03179 0.370128 -0.0363244 0.982055 0.185064
4.5585 1.98523 1.7156 -0.471238 -0.205224 0.857798
5.92779 0.551752 1.99946 -0.0231949 -0.00215895 0.999729
-1.80365 7.45627 1.0985 -0.196477 0.812232 0.54925
-1.02395 -4.21006 -1.10473 0.197001 0.809991 -0.552363
2.07622 4.41712 -1.65749 -0.238061 -0.506471 -0.828743
4.67673 2.45213 -1.86614 -0.318565 -0.167031 -0.933069
-4.43611 2.36893 1.74848 0.428258 -0.228695 0.874239
-2.59602 -7.54416 0.293643 -0.321858 -0.935335 0.146821
3.86888 1.11804 0.32866 -0.94763 -0.273849 0.16433
7.4839 1.91699 -1.01124 0.835774 0.214082 -0.505619
3.95143 -0.675062 0.186081 -0.981443 0.16767 0.0930405
4.00802 4.92283 1.96947 0.109893 0.134976 0.984736
6.25714 -0.0680939 -1.98335 0.128749 -0.00140113 -0.991676
6.15661 4.94029 -0.643387 0.738482 0.592586 -0.321694
-1.83484 -7.15907 1.43757 -0.172606 -0.673464 0.718786
-4.52441 -0.31933 -1.36224 0.730353 0.0515479 -0.681122
-4.97668 0.204712 -1.72088 0.509125 -0.0209425 -0.860438
-1.70774 -6.20536 -1.95188 -0.0578519 -0.210215 -0.975942
-2.28276 -6.6636 1.70604 -0.169132 -0.493713 0.85302
0.808286 -7.10421 1.63628 0.0650042 -0.571336 0.818138
3.63324 7.12535 0.085119 0.453846 0.890063 0.0425595
-3.07346 -2.72625 0.649365 0.70757 0.627636 0.324683
-5.81483 -2.75556 -1.95219 -0.19641 -0.093076 -0.976094
-5.0421 -2.33436 -1.95015 0.201339 0.0932145 -0.975076
-2.63411 -7.54885 -0.138159 -0.328673 -0.941914 -0.0690796
3.74901 6.7591 1.00493 0.41937 0.756082 0.502464
1.00193 5.49782 1.95718 -0.0369006 -0.202482 0.978591
4.66306 3.32339 -1.98117 -0.111494 -0.0794621 -0.990583
1.16411 5.57302 1.97634 -0.0313552 -0.150109 0.988172
6.20166 2.78546 1.83369 0.364194 0.163577 0.916845
0.322649 5.69993 1.97872 -0.00822147 -0.145241 0.989362
-3.47616 -2.04598 -0.36493 0.847339 0.498721 -0.182465
2.54221 3.09902 0.182421 -0.631586 -0.769922 0.0912105
1.36088 -3.97537 0.875601 -0.291187 0.850612 0.4378
-2.83453 -2.95393 0.605715 0.659856 0.687653 0.302857
-2.56027 -4.04349 -1.58932 0.32475 0.512886 -0.79466
-5.31617 -2.02022 1.97537 0.146253 0.055578 0.987685
7.1988 3.44422 -0.279919 0.893191 0.427342 -0.13996
3.37663 3.39789 1.59271 -0.426337 -0.429021 0.796353
-3.57839 1.79141 -0.083737 0.893421 -0.447265 -0.0418685
-4.77428 -5.73096 1.36789 -0.466947 -0.560515 0.683947
4.20811 2.82382 1.76944 -0.387054 -0.25973 0.88472
2.78777 5.81718 1.94856 0.0973836 0.203208 0.974281
4.45187 -0.425284 1.2906 -0.760469 0.0726471 0.645297
-3.83468 -1.28528 -0.418799 0.927138 0.310751 -0.2094
-2.70642 -5.59717 1.98818 -0.0472655 -0.0977504 0.994088
1.95083 7.07518 1.48544 0.177986 0.645511 0.742722
5.57359 1.80355 1.99496 -0.0674895 -0.0218388 0.997481
6.83341 -0.840706 -1.79357 0.439153 -0.0540285 -0.896786
-4.23559 -3.52397 -1.93901 0.188391 0.156739 -0.969506
-4.23325 -1.21193 -1.20441 0.767509 0.21973 -0.602203
5.51564 -0.675377 -1.95028 -0.21994 0.0269312 -0.975142
-2.60313 -4.18676 -1.68973 0.282479 0.454326 -0.844863
-1.40978 -5.05038 1.85139 0.101704 0.364343 0.925695
-5.95005 -4.55464 1.33056 -0.59284 -0.453807 0.665282
-0.384008 4.18809 0.883357 0.0819188 -0.893426 0.441678
4.8967 5.20299 -1.63992 0.392307 0.416846 -0.81996
-0.699262 6.06377 1.9973 -0.00595429 0.0516336 0.998648
4.06344 -1.49877 1.10207 -0.782924 0.288775 0.551034
1.82984 -3.55951 -0.0959325 -0.456672 0.888341 -0.0479662
3.89835 1.39984 0.740315 -0.87431 -0.313953 0.370157
7.33877 1.04658 -1.4154 0.699435 0.0997464 -0.707702
4.11462 -5.71581 -1.70664 0.30461 -0.423149 -0.853322
-2.76751 3.79225 -1.51532 0.384733 -0.52719 -0.757662
3.3782 2.85811 1.23269 -0.601179 -0.508625 0.616347
3.84609 3.50125 1.8335 -0.295396 -0.268911 0.916749
6.54448 3.98659 1.1109 0.710165 0.432599 0.555448
5.38972 3.88806 1.89288 0.261856 0.188899 0.94644
-5.75686 -4.25372 1.63072 -0.465633 -0.344054 0.815361
7.43183 -2.86166 -0.379128 0.916288 -0.35282 -0.189564
-4.14089 -3.66561 1.94405 0.175868 0.155682 0.972026
0.812153 -4.50719 1.40818 -0.125928 0.698858 0.704088
0.845908 -4.08449 -0.80954 -0.185443 0.895417 -0.40477
-3.94335 -3.84072 -1.93768 0.177429 0.172811 -0.968842
7.12474 3.618 -0.192291 0.887494 0.450677 -0.0961455
-3.46825 -6.32095 -1.5925 -0.291012 -0.530376 -0.796249
-0.364208 -7.97716 0.240658 -0.0452774 -0.991701 0.120329
-4.70208 -2.24568 -1.83771 0.356068 0.170055 -0.918856
5.63003 4.03699 -1.77177 0.377001 0.270327 -0.885885
1.34994 -4.86506 1.75936 -0.127154 0.458251 0.879681
-6.84769 0.429485 1.80511 -0.429726 0.0269523 0.902557
6.75081 3.29528 1.30898 0.679446 0.331658 0.654489
4.56698 3.08977 -1.94005 -0.201274 -0.136171 -0.970024
-0.53066 4.54401 1.40324 0.0826518 -0.707743 0.701619
1.5191 -6.22371 -1.95827 0.0481857 -0.197415 -0.979135
-4.38227 -5.02663 1.8849 -0.219711 -0.252016 0.942452
5.86151 5.44451 0.00522491 0.732686 0.680562 0.00261245
2.90559 6.68932 -1.52574 0.257588 0.593025 -0.76287
5.24889 5.52228 1.17448 0.557634 0.586679 0.587241
-3.56587 -7.01886 -0.702068 -0.424116 -0.834806 -0.351034
